ply
format ascii 1.0
element vertex 1293
property float x
property float y
property float z
property uchar red
property uchar green
property uchar blue
end_header
-14.3655 1.87002 -1.39583 36 71 117
-13.5557 0.433115 -3.82042 137 138 126
-14.5026 -2.8495 -0.782655 63 67 86
-15.8492 -1.72012 -0.626277 17 27 51
-15.9816 -0.659869 -0.759746 160 137 145
-14.9899 2.59709 -1.198 145 121 139
-15.0047 2.56645 -1.17193 144 120 137
-15.6463 3.3001 -2.69116 53 70 105
-13.1319 0.443253 -2.92292 13 33 70
-15.9505 -1.1844 -2.48869 19 42 78
-15.85 -1.3368 -0.686386 126 111 115
-13.0088 1.28798 -3.52567 118 128 124
-14.9792 0.179717 -0.686168 154 142 151
-14.2216 2.49464 -1.7792 59 104 165
-14.2187 3.17398 -3.50416 105 120 136
-16.4004 2.98571 -0.919848 178 184 202
-14.7715 1.53677 -3.7766 14 20 37
-14.1974 -0.104429 -3.59016 28 44 79
-16.548 -2.34624 -2.15611 20 41 75
-15.543 0.877308 -0.665933 17 23 42
-12.8989 -0.631698 -2.95256 34 64 104
-16.6798 -1.54034 -1.47734 42 32 48
-14.5167 -2.59123 -0.694391 10 22 45
-17.0462 1.77009 -1.55054 28 49 80
-13.1939 0.886688 -3.48569 40 70 108
-13.0922 1.70601 -3.11624 19 39 77
-13.5037 1.89213 -2.08891 104 114 149
-14.7737 1.12621 -3.54582 22 46 79
-14.7574 1.11163 -3.5827 14 38 71
-13.6201 3.10333 -3.29486 48 121 173
-17.1034 2.70679 -1.07998 46 84 125
-15.0736 0.0802672 -0.654415 170 159 167
-14.2726 -2.60541 -0.84662 11 21 47
-14.6222 1.61358 -1.24917 30 63 108
-14.3225 2.13188 -1.49092 47 87 148
-13.9541 -2.63836 -3.27246 96 95 123
-16.9458 1.333 -1.82953 20 41 74
-15.5266 -2.69687 -0.497876 15 22 41
-15.5553 -2.71068 -0.469159 18 24 42
-15.5271 2.36762 -3.17865 47 67 104
-16.5228 3.17622 -1.4953 27 56 89
-14.1039 0.127474 -1.18579 183 185 198
-15.6025 -0.048418 -0.787474 58 53 71
-16.3288 -1.55146 -2.30409 19 39 76
-15.9312 1.992 -0.524465 151 128 147
-13.0332 0.459518 -3.33964 42 69 113
-16.8894 -0.112272 -0.483662 26 32 49
-16.9301 -0.112081 -0.47013 26 31 49
-14.6596 -2.25838 -0.667687 10 28 59
-14.0361 -0.971647 -0.954853 25 43 81
-13.2226 1.19018 -2.99214 11 24 51
-16.5061 -0.936192 -1.38131 20 34 58
-13.6219 1.71761 -1.79491 149 152 172
-13.8234 -2.6072 -1.37198 12 29 65
-13.2339 2.48567 -2.72926 53 93 152
-13.897 -0.263385 -2.86943 10 24 53
-14.3266 -2.72662 -0.894282 12 16 38
-14.3266 -2.72662 -0.894282 12 16 38
-14.8113 -0.394814 -0.637734 169 157 166
-14.4466 1.96375 -1.40834 38 76 121
-14.4764 1.99379 -1.40131 36 72 116
-14.3282 0.195759 -0.988141 191 191 202
-14.2857 0.201571 -0.988068 187 189 201
-17.197 1.14723 -0.899311 18 25 43
-13.3596 1.88518 -2.53656 140 131 152
-17.4281 1.79158 -1.01473 134 129 110
-15.2284 -1.99497 -0.559986 25 49 85
-15.5038 -0.00356076 -0.693982 64 64 82
-14.6364 1.23463 -1.00355 50 87 131
-14.8268 0.517745 -0.765996 204 202 216
-14.8121 0.551623 -0.787824 208 207 222
-13.3119 -0.779879 -3.60097 35 52 83
-15.6166 2.90352 -2.88382 83 109 153
-16.1138 -0.625589 -0.849462 164 137 144
-17.0722 1.81463 -1.55049 28 49 81
-15.8472 -0.460488 -0.786595 174 148 154
-15.8766 -0.439346 -0.763593 170 145 151
-14.1434 0.159127 -1.15495 197 199 212
-14.3436 -1.84073 -0.932594 17 29 56
-12.9385 -0.365321 -3.06331 9 29 60
-13.8516 2.69333 -2.41879 45 101 166
-14.084 2.22074 -1.66355 35 78 130
-13.2003 -0.364358 -3.68067 45 67 104
-12.8793 -0.614215 -3.33737 76 112 154
-15.0555 -0.76342 -0.605462 169 159 168
-13.0706 -0.0856244 -3.47875 80 127 174
-13.0672 -0.051843 -3.45252 95 139 187
-16.1863 -1.53305 -0.743157 134 113 120
-13.0947 1.06055 -3.06693 36 57 98
-13.7527 -1.36657 -1.71063 20 43 81
-13.1036 0.847221 -3.07528 16 37 76
-15.1691 1.38042 -0.731119 9 22 47
-17.0111 2.64679 -0.98872 31 65 107
-16.52 2.93557 -0.756562 243 239 250
-14.6653 1.08111 -1.01183 28 57 98
-13.5708 1.55738 -2.51078 132 121 136
-15.8186 -1.21 -0.688331 155 134 140
-16.3225 2.68659 -0.798789 170 175 191
-15.084 -0.431441 -0.669149 154 141 148
-13.819 0.906517 -1.51548 41 53 76
-13.8171 -1.39553 -1.65992 21 39 82
-13.6132 -1.84317 -1.95446 21 48 87
-13.654 -2.67975 -1.64955 43 62 96
-16.2925 -1.54 -0.90572 134 118 127
-16.3077 -1.5703 -0.879405 115 101 107
-15.9332 -2.35706 -0.555603 24 34 60
-12.987 -0.407357 -2.99554 17 41 74
-15.4969 -0.161903 -0.734148 172 150 159
-15.4793 -0.12753 -0.752872 170 148 156
-13.1477 0.570059 -2.9719 26 46 84
-13.0378 0.422021 -3.34015 38 65 109
-13.0415 0.293794 -3.42676 30 56 102
-14.1445 -2.50799 -1.00537 40 59 96
-16.4731 3.08237 -1.09539 179 183 199
-12.9896 -0.633508 -2.86547 32 65 104
-13.56 -2.27336 -2.8345 27 44 76
-15.4986 -2.68305 -0.527323 16 23 43
-13.5922 -0.766388 -2.42288 22 41 83
-13.3545 -2.60079 -2.48029 42 59 98
-13.7439 3.14685 -2.79973 69 119 189
-13.3525 2.26813 -2.47703 44 82 137
-14.3451 3.25019 -2.45845 89 134 198
-13.6975 1.75091 -1.72989 51 83 125
-13.6615 1.74081 -1.75097 80 98 134
-16.0152 -0.387703 -0.842173 135 116 127
-12.9285 -0.45662 -3.0471 47 79 118
-16.2188 -0.550157 -0.977021 101 88 97
-17.0251 1.27991 -1.44449 28 51 86
-14 -2.08227 -1.22022 25 46 82
-14.2915 0.914923 -1.18033 196 197 208
-13.5772 -1.73115 -2.28064 50 81 129
-15.0362 0.0769465 -0.677059 177 167 176
-15.0158 0.114605 -0.679968 165 155 164
-13.6889 -2.52178 -3.1129 36 46 75
-14.1796 -2.16146 -1.01966 33 56 93
-16.6435 -1.5533 -1.47938 28 34 55
-13.6663 1.64518 -1.758 185 180 195
-13.732 3.03388 -2.72136 42 101 163
-16.0521 -1.24437 -2.28943 7 34 69
-13.3896 -2.87573 -2.14829 49 61 87
-13.3766 -2.87763 -2.18916 64 77 101
-16.0571 2.70445 -2.64902 37 79 120
-15.2771 1.66193 -0.465705 23 32 61
-16.813 0.943536 -0.593618 28 41 66
-16.7857 0.964689 -0.568117 20 30 53
-13.0869 1.3629 -3.42208 63 81 102
-17.0605 0.454866 -0.593789 24 29 42
-13.6942 1.83244 -1.65648 58 89 133
-14.8764 -0.357862 -0.631521 179 167 176
-12.9527 -0.0392114 -3.41894 27 38 53
-17.0305 2.62079 -1.53751 35 65 103
-14.8054 0.0584156 -0.632286 188 181 193
-14.5803 1.61803 -1.23582 31 65 110
-14.1367 -2.10282 -1.256 26 49 88
-15.9424 3.26296 -1.37761 114 98 108
-14.4926 -2.86758 -0.766641 64 69 88
-15.7202 -1.00112 -0.617039 149 131 137
-15.2999 -0.0500197 -0.698535 179 160 168
-14.4029 0.563032 -1.01172 191 193 204
-15.5349 -0.0212529 -0.704497 69 67 84
-13.7329 0.943074 -2.90289 14 20 45
-16.0457 2.84121 -1.00267 111 106 119
-16.0169 2.83296 -1.03343 113 106 117
-15.9869 -2.74796 -0.449735 22 28 51
-15.9443 -2.74767 -0.444351 21 28 51
-16.0883 -1.4508 -0.740074 161 140 148
-13.7236 -0.990735 -2.64307 26 41 81
-13.873 1.76583 -3.90629 24 38 70
-13.8268 2.70881 -2.33208 50 104 167
-13.1424 -0.661909 -2.78082 22 53 96
-13.988 1.30649 -1.45486 177 169 183
-13.5327 -2.68169 -1.77013 41 66 99
-12.7976 -0.62578 -3.07006 28 57 105
-15.9798 -0.351887 -0.846107 118 102 114
-13.7389 3.19197 -2.79252 84 133 202
-13.2348 2.46527 -2.74169 49 86 139
-14.1738 3.1517 -3.54671 99 107 116
-15.2873 -0.152993 -0.65554 195 174 181
-13.1245 1.42133 -2.85772 10 22 53
-17.1462 2.48397 -1.32551 35 68 105
-13.7285 0.477626 -2.19457 30 42 73
-13.4105 -2.12002 -2.5315 20 36 77
-13.7649 -0.370142 -2.60205 27 48 89
-15.3164 -0.193148 -0.654576 189 166 172
-13.7522 -1.28585 -1.74716 20 44 84
-15.4026 2.13759 -0.674253 159 154 171
-14.5193 -0.511474 -0.728752 211 211 222
-12.9131 -0.445557 -3.06405 45 74 117
-14.4542 -1.97593 -0.858796 17 34 64
-14.7121 1.1595 -0.945025 28 52 90
-13.9033 -2.52619 -3.23076 91 97 129
-13.8705 -0.284982 -2.91406 31 40 61
-15.9781 -0.382603 -0.814553 165 141 149
-14.7086 -1.40811 -3.23643 18 41 74
-14.7439 -1.38513 -3.22797 22 45 79
-15.4099 -2.58517 -0.30678 83 68 69
-17.0381 0.279739 -1.4062 13 37 72
-15.23 -0.120396 -0.686677 138 129 136
-17.0732 0.288952 -1.3272 10 23 50
-15.8205 -1.29211 -0.679327 146 128 134
-14.0786 -2.62471 -1.00642 17 31 62
-13.3897 -2.63772 -2.05622 40 64 99
-13.198 0.690619 -3.6577 44 70 108
-14.1702 1.21903 -1.31392 204 200 213
-13.2556 -0.220389 -3.71396 50 74 110
-13.9154 -0.211625 -3.31933 26 42 72
-13.9028 -0.251421 -3.30914 29 45 74
-13.9771 -0.20664 -1.29739 59 80 115
-15.849 1.7256 -0.510848 100 89 101
-16.0098 3.07781 -2.51747 28 57 88
-13.4081 -2.34872 -2.23075 34 58 100
-13.9481 0.00428812 -1.34423 237 243 252
-15.7176 3.24293 -1.32267 73 45 48
-16.4697 -0.430355 -1.72121 24 43 75
-13.5 1.12586 -3.70898 33 56 97
-14.1687 1.29573 -1.35458 169 175 196
-15.074 1.30728 -0.839076 13 28 55
-13.9692 2.90438 -2.16739 65 120 177
-17.5737 1.79128 -0.184688 105 98 83
-17.311 1.02738 -1.19647 18 32 56
-16.2406 2.48933 -0.627355 192 191 209
-13.9535 -0.213946 -3.09528 54 71 86
-13.9625 -0.25597 -3.09572 61 72 84
-13.2832 2.40894 -2.63598 31 70 128
-16.6085 -0.00610276 -0.568529 15 20 38
-13.618 -0.907738 -2.40947 19 38 79
-15.1289 -2.88328 -0.633222 50 55 80
-13.6156 1.65978 -1.80699 179 175 187
-16.2792 2.83327 -0.916965 158 161 177
-15.3065 -0.119422 -0.674305 196 173 179
-13.8047 0.385174 -1.96063 155 157 178
-13.1981 -0.17905 -2.92298 7 18 39
-14.7702 -0.769056 -0.656952 173 163 173
-15.8528 -0.814568 -0.69204 170 143 151
-15.7667 -1.37533 -0.688967 157 140 146
-16.115 2.65543 -2.63934 32 67 106
-14.7771 -2.15162 -0.643436 18 29 55
-15.4035 1.90442 -0.51834 30 55 96
-15.3668 -1.91719 -0.539611 16 35 65
-16.2134 3.48381 -1.96911 148 148 144
-17.1092 2.75691 -1.09483 44 90 135
-15.6675 2.90305 -2.87468 84 111 154
-14.2338 -2.48232 -3.42892 82 90 124
-16.0873 -2.81128 -0.379593 43 32 38
-14.6096 -0.290788 -3.19715 22 49 82
-15.9366 -0.350869 -0.823727 161 138 148
-14.1596 3.41576 -2.9776 72 74 78
-14.5092 0.863401 -1.0075 207 212 224
-14.4964 0.899346 -1.02732 212 218 231
-13.3713 2.11709 -2.36787 47 84 138
-13.1403 1.71103 -3.15322 28 51 91
-13.9793 1.46262 -2.63872 149 131 152
-15.8144 -0.402125 -0.760034 155 135 140
-13.9234 -0.0288376 -1.44182 153 164 191
-15.8255 -0.447361 -0.714754 169 149 155
-13.762 2.35014 -3.74393 77 116 169
-16.3556 -1.35069 -0.888859 33 26 37
-16.8238 3.01951 -1.27106 68 101 143
-14.9703 -0.754523 -3.28312 46 66 94
-14.8541 -0.394845 -0.632425 181 168 177
-13.0809 1.55179 -2.92218 12 25 61
-14.52 -0.664126 -0.698583 199 197 209
-14.5607 -0.67745 -0.694679 185 183 197
-16.3119 3.42795 -1.39437 67 65 67
-12.8097 -0.565214 -3.10081 45 82 134
-16.5948 1.99324 -2.54465 52 61 80
-15.8422 2.2518 -0.673383 156 154 169
-15.8161 2.24567 -0.707009 163 160 178
-15.6777 2.89245 -1.16165 117 101 112
-14.3851 -0.699404 -0.754067 84 99 124
-13.1015 1.80551 -3.23804 37 63 106
-15.8072 -2.77626 -0.456226 24 31 55
-13.275 1.08388 -3.71229 32 60 98
-15.1478 -0.504997 -0.607757 177 162 170
-14.4535 -2.44928 -0.756707 12 27 55
-13.9795 1.46335 -2.63823 149 131 152
-15.9022 -0.314 -0.827768 145 124 136
-15.0199 -2.60607 -0.579918 14 25 51
-13.4209 2.56296 -2.57527 54 101 165
-15.7772 2.35867 -0.724556 196 181 199
-15.7602 2.39804 -0.727876 190 175 192
-17.1101 0.299654 -1.27223 10 23 47
-13.3429 2.02025 -2.52944 134 148 178
-13.8196 3.10965 -2.72752 55 107 167
-14.6897 0.993568 -3.45675 23 49 82
-14.9805 -2.61166 -0.607044 12 22 47
-16.8392 1.11479 -1.98389 30 50 80
-15.3013 2.28505 -3.31829 31 67 104
-12.9679 -0.485838 -2.97926 41 73 112
-13.8642 0.326759 -3.2849 19 39 68
-15.0632 -0.50461 -0.626296 167 153 162
-14.6871 1.80092 -1.17616 33 60 100
-13.7618 -0.473181 -2.82898 12 22 54
-15.7537 -0.158559 -0.80683 66 59 76
-15.953 3.25025 -1.37507 156 124 131
-15.9989 -0.878677 -0.769361 142 118 124
-16.8554 2.94607 -1.40023 52 93 136
-15.833 3.26803 -1.361 110 81 86
-12.785 -0.609936 -3.05411 27 55 100
-13.6352 -1.22563 -2.36684 34 61 109
-13.6542 -1.18704 -2.36751 31 57 104
-13.6853 -0.399297 -2.49214 32 56 101
-16.528 1.90576 -2.59965 47 61 83
-14.0075 0.110111 -1.30875 243 251 254
-16.7003 -1.52882 -1.66629 17 32 64
-14.0171 -2.2543 -1.22446 23 44 81
-14.0029 -2.278 -1.25744 19 40 76
-16.3265 1.49155 -0.725797 19 22 41
-13.6299 -1.2826 -2.5427 40 69 118
-13.5914 1.19855 -2.34124 35 36 52
-15.5481 -2.13639 -0.475217 11 30 60
-13.6254 -1.14053 -2.70145 27 51 93
-15.8167 -1.68544 -0.604232 18 26 47
-13.406 -2.70986 -1.96191 19 39 70
-14.6557 0.740372 -0.851684 213 217 231
-13.0834 2.09788 -2.98575 29 58 107
-16.1735 -0.941601 -0.920526 128 105 110
-16.6562 3.21243 -1.23461 84 77 67
-15.7122 0.948175 -0.774166 15 19 36
-15.7367 -0.196241 -0.782793 160 137 147
-14.387 0.913412 -1.15979 237 239 246
-15.3626 -2.78187 -0.506053 20 28 49
-13.2579 2.70609 -2.8331 38 83 146
-15.9352 -1.37042 -0.699482 151 129 136
-14.5509 -0.123054 -0.820556 197 194 207
-14.8546 0.555198 -0.768946 178 180 199
-14.8732 0.519293 -0.754218 189 189 206
-16.1619 -1.49346 -0.745271 126 107 113
-13.6277 -1.11829 -2.69489 24 46 88
-16.1145 -1.49081 -0.728867 140 122 128
-13.5324 2.8628 -3.48044 88 136 199
-14.5285 0.927191 -1.04276 164 177 197
-14.5448 0.896931 -1.01686 170 183 203
-15.5841 -0.0203245 -0.69307 43 43 62
-13.1952 -0.541303 -2.8848 19 43 84
-13.8643 -2.18589 -3.3065 69 47 53
-13.5814 -1.86034 -2.0006 16 40 79
-13.507 -2.65894 -1.84883 54 79 120
-13.6975 2.94382 -2.64163 38 97 164
-16.5642 -0.109258 -2.00186 10 20 45
-14.4662 -2.41148 -0.737517 9 24 53
-14.37 1.72939 -1.31826 41 75 122
-15.5497 -2.69273 -0.4674 15 24 45
-17.034 2.50273 -0.830598 36 55 84
-14.0402 -0.268969 -0.912731 63 72 88
-13.7397 -1.3408 -1.75751 20 44 84
-17.229 0.0379818 -0.769545 17 31 56
-14.7885 0.596393 -0.733978 217 214 227
-14.7793 0.55746 -0.718081 222 218 230
-14.3366 0.516163 -1.02934 214 216 226
-14.8336 -0.357224 -0.638522 171 158 167
-14.8556 -0.320231 -0.637598 173 161 170
-16.5103 -1.51385 -1.99078 19 37 71
-13.7043 -0.82204 -3.46372 36 53 83
-16.9633 1.2086 -0.583096 30 39 64
-14.0251 3.39332 -2.8841 61 56 53
-16.3377 1.43322 -0.788984 17 22 42
-13.6518 1.90058 -3.8762 35 60 99
-16.5248 -1.45865 -2.01409 25 43 78
-17.0583 1.84091 -1.60584 23 44 77
-13.533 -2.20364 -1.87472 28 51 96
-13.5355 -2.22602 -1.83802 33 59 104
-17.2387 0.281651 -0.76139 20 35 60
-17.1868 0.447358 -0.797654 16 25 41
-13.4274 -2.33768 -2.25081 39 61 107
-15.9982 2.91626 -0.86121 167 138 150
-13.681 1.14657 -1.98883 170 157 176
-14.2344 1.01194 -1.28936 237 235 244
-17.2442 -0.0358065 -0.813035 30 43 67
-16.2985 3.0822 -1.19743 124 119 131
-17.2707 1.85099 -0.996882 25 40 64
-13.7518 -0.865048 -2.64049 17 33 71
-15.1597 0.368145 -3.17267 48 68 98
-14.3934 3.43983 -2.88911 123 173 208
-13.4433 1.50941 -2.23135 160 147 166
-13.4433 1.50941 -2.23135 162 150 169
-13.8478 -2.13211 -3.30356 74 56 62
-12.9824 -0.142447 -3.1901 24 40 70
-14.1019 0.717582 -1.35363 187 186 200
-14.4619 -1.38792 -3.29903 16 37 70
-15.3842 3.12084 -2.95811 69 115 163
-16.4254 2.96621 -0.861686 204 207 226
-13.0942 0.0697299 -2.97869 46 73 122
-16.6282 -0.203527 -0.684049 18 24 40
-16.6466 -0.167613 -0.668997 16 22 38
-15.4819 0.023356 -0.786508 57 50 70
-14.021 -1.4401 -1.22747 10 18 39
-14.4697 2.70941 -1.6671 43 78 122
-14.1886 -2.26647 -1.01162 23 45 79
-14.1817 -2.22406 -1.01461 28 50 84
-13.6981 1.62791 -1.73464 189 184 200
-14.1026 -1.87144 -1.13789 17 32 66
-17.2348 0.401283 -0.799503 16 24 39
-14.8024 -0.230181 -0.667491 176 159 172
-14.7778 -0.19646 -0.65686 184 174 187
-13.741 3.0995 -2.72682 45 102 162
-14.7768 0.793617 -0.942493 34 57 93
-13.6052 1.32246 -1.90594 150 140 155
-16.7885 0.834232 -0.597733 30 43 68
-16.0308 -0.680837 -2.4657 16 42 73
-13.723 -1.24492 -2.29696 26 62 105
-15.6547 2.41322 -0.757824 142 136 151
-13.2559 2.4036 -2.62187 31 70 117
-16.6095 -1.63416 -1.67322 18 35 65
-14.9276 0.00192671 -0.675698 158 146 156
-13.1126 0.465815 -3.43542 61 91 128
-13.101 0.469566 -3.3941 69 97 135
-13.5837 1.3581 -2.11866 150 138 155
-13.2018 -0.298486 -3.68095 23 42 76
-13.0684 -0.615586 -3.55087 82 111 148
-13.4951 -1.83733 -2.53319 26 48 95
-13.1027 0.439052 -2.95342 14 35 73
-14.8916 0.47893 -0.751103 191 189 203
-14.4826 0.935968 -1.04534 215 223 235
-13.7245 0.754612 -1.82295 171 165 180
-13.7551 0.729637 -1.80574 180 175 189
-15.1751 0.327303 -0.682565 47 48 67
-15.1947 0.289027 -0.679876 71 70 86
-15.7297 -2.89165 -0.475605 68 72 96
-13.1957 1.59649 -2.82761 25 37 65
-13.4599 -2.04664 -2.35762 37 60 108
-16.4601 3.16051 -1.13029 172 169 184
-12.9686 -0.553132 -2.97977 34 65 101
-14.5447 2.7319 -1.59088 50 68 108
-14.5447 2.7319 -1.59088 50 68 108
-15.805 -1.83496 -0.624849 16 26 51
-13.9106 -0.0532248 -1.49097 63 85 121
-15.9074 -1.02062 -0.691716 167 144 154
-15.8724 -1.01697 -0.71659 147 125 132
-13.977 0.0914742 -1.34461 236 242 252
-15.7085 -0.156071 -0.784837 134 114 126
-17.0492 2.36152 -1.77672 33 62 101
-14.1513 -2.24042 -1.01979 43 65 106
-14.3861 -1.53264 -3.20542 24 44 78
-15.0698 -2.44115 -3.38377 41 58 92
-15.0003 2.70901 -3.41138 57 94 139
-14.8614 2.70625 -1.31417 30 27 47
-14.3877 -2.86511 -0.884723 32 37 61
-12.8172 -0.803292 -3.14372 19 32 63
-13.0425 1.4413 -3.22166 41 68 112
-15.9656 2.49422 -0.76933 178 169 187
-15.9831 2.53065 -0.784304 143 141 156
-16.0207 2.29843 -0.608717 196 184 202
-16.0186 2.26184 -0.586037 190 177 195
-14.1271 1.89953 -3.67604 20 42 74
-17.2093 0.122265 -0.761134 24 40 66
-14.2579 3.19436 -3.59167 66 65 64
-15.4746 2.34932 -3.26076 36 61 98
-13.3556 2.0254 -2.4483 156 164 193
-14.8981 0.555618 -0.761294 101 109 132
-15.0531 0.197757 -0.655394 171 157 166
-13.1068 1.58885 -2.92217 23 37 75
-15.374 1.95394 -0.755519 24 41 82
-15.3962 1.97604 -0.785133 26 41 81
-14.1261 0.533159 -1.22523 236 239 246
-14.8513 -1.00409 -0.62356 139 133 144
-14.8302 -0.966709 -0.62753 167 156 167
-15.125 -0.541928 -0.6069 180 165 173
-16.2279 3.34815 -1.6927 28 43 71
-13.6365 1.77262 -1.78155 69 93 131
-15.266 -0.193897 -0.647391 195 174 182
-14.0721 2.25422 -1.70712 53 99 158
-13.861 -2.13355 -1.45821 30 54 93
-14.1928 0.707611 -1.24248 228 228 237
-14.4842 0.564189 -0.969474 237 241 248
-15.4411 -0.398407 -0.754725 174 152 162
-13.6951 1.54514 -1.70117 198 191 201
-15.4499 2.62957 -0.911956 137 115 126
-15.4326 2.59019 -0.90898 156 128 143
-16.4449 3.27201 -1.37811 80 73 61
-13.8034 0.289386 -1.85784 148 154 182
-14.908 0.49073 -0.787806 209 216 238
-15.916 -0.735062 -0.580545 154 130 138
-16.598 -1.22139 -1.73595 29 45 78
-13.1053 0.411603 -3.39412 69 95 130
-16.1307 2.28314 -0.529513 201 190 210
-14.027 1.14794 -1.42131 228 232 248
-15.7973 -1.32838 -0.665345 147 129 136
-15.0957 2.44284 -1.04795 113 100 116
-16.0915 2.62149 -2.67596 32 70 110
-17.0738 2.60732 -1.53316 28 57 92
-14.9545 -2.81233 -0.669237 18 24 44
-14.9692 -2.77222 -0.663358 17 24 46
-15.4605 2.58834 -1.06873 141 119 132
-17.2516 -0.182615 -1.17521 22 36 63
-16.4438 0.87071 -0.635995 13 22 44
-13.8097 2.22176 -3.83638 53 94 140
-15.3319 1.5486 -0.423474 28 43 73
-13.7692 -0.531135 -3.48118 23 43 71
-13.79 -0.553956 -3.45107 18 37 65
-15.9756 1.78396 -0.618286 106 95 105
-17.4097 0.275747 -1.00471 20 39 66
-13.3004 1.1098 -2.9213 12 21 47
-13.3069 -0.330194 -2.88149 12 19 41
-13.3926 -0.292797 -3.67816 32 52 88
-14.3497 3.37723 -3.13662 70 89 118
-13.3078 0.733385 -3.77797 31 54 91
-14.2043 -2.23197 -3.31678 31 47 80
-15.0437 -0.542172 -0.638327 164 151 159
-16.6444 0.70676 -0.602787 23 36 61
-16.7364 -2.41396 -1.46744 21 34 60
-14.3361 -2.36991 -0.890391 15 29 61
-13.9629 -1.86066 -3.20319 25 24 42
-13.9721 -2.40933 -3.34793 35 53 87
-13.9351 -2.38733 -3.35074 32 47 79
-14.053 1.00466 -1.3651 202 202 216
-16.979 2.80077 -1.24934 24 67 108
-14.6857 -2.4512 -0.628361 9 26 53
-14.2346 -1.68456 -3.25067 19 37 68
-14.6037 1.65498 -1.25314 30 64 109
-15.6553 -0.199149 -0.731591 178 151 159
-13.8626 0.686795 -1.57683 185 186 207
-15.8426 -1.32847 -0.670661 141 122 128
-15.747 1.65866 -0.492688 25 30 52
-15.5623 -0.0594117 -0.759745 139 120 131
-17.2031 0.36842 -0.775764 15 23 39
-13.0735 1.23201 -3.12553 37 58 98
-15.9276 3.17821 -1.26234 102 90 96
-16.4404 0.832495 -0.613145 11 18 42
-15.6832 -1.4639 -0.621296 137 124 131
-15.6645 -1.42513 -0.624313 149 134 141
-14.9543 0.140942 -0.679702 160 147 157
-14.8077 -2.29013 -0.680086 11 30 60
-16.6193 2.78648 -0.729238 63 93 133
-16.9002 2.95923 -0.779225 58 55 67
-16.1919 1.67058 -0.751007 87 74 91
-15.8035 2.21249 -0.562954 190 177 194
-15.8286 2.19587 -0.593875 186 175 194
-14.173 -2.42686 -1.00532 15 32 63
-12.8355 -0.619307 -3.37885 38 65 111
-16.1793 2.99063 -2.50294 32 55 88
-15.8886 -2.67035 -0.481278 31 43 66
-13.5838 -2.74854 -3.09943 94 96 118
-14.7062 -1.59825 -3.30021 36 59 96
-13.3525 1.93859 -2.57195 64 70 100
-14.8519 0.0906129 -0.683636 174 169 181
-14.8203 0.0906285 -0.713035 195 192 203
-14.0528 -0.326656 -1.15506 55 74 107
-13.3593 2.40384 -2.47666 56 101 161
-15.8605 1.17532 -2.89816 37 54 85
-16.6181 0.429686 -0.571114 15 21 40
-15.6246 3.2179 -2.74454 68 84 110
-13.9719 1.53407 -1.45385 42 69 109
-16.1401 2.70288 -2.72448 46 71 108
-13.684 -1.16774 -1.90217 15 36 73
-16.5027 -0.937486 -1.37958 20 34 58
-13.1665 2.11205 -2.87844 25 49 95
-12.7921 -0.755798 -3.03435 14 24 54
-14.8932 2.18262 -0.962581 14 23 51
-13.7781 -0.401053 -2.83257 17 28 62
-14.6721 -1.88805 -0.761144 12 22 44
-16.3213 2.91053 -0.787544 207 196 214
-16.2803 2.91266 -0.774194 185 174 188
-15.8455 3.17845 -1.32496 155 123 133
-14.817 0.631441 -0.801374 118 128 150
-15.0137 1.06487 -0.732302 32 51 90
-16.2355 2.80748 -0.88342 152 155 170
-14.7991 0.668105 -0.815494 86 100 128
-15.5653 -0.111685 -0.706768 177 152 158
-15.5824 -0.13032 -0.741759 177 151 158
-13.7724 -0.545419 -2.88088 21 30 60
-13.1199 0.922394 -3.20007 36 62 104
-12.9618 -0.188689 -3.14632 21 40 77
-15.4859 -0.169051 -2.83038 35 53 87
-12.8957 -0.385487 -3.28544 48 77 123
-14.8398 -0.283736 -0.667379 166 152 162
-13.1008 1.3031 -3.30826 30 60 102
-13.0717 0.194168 -3.04406 19 44 90
-15.836 -1.56 -0.640876 119 110 121
-15.7493 1.5006 -0.5563 21 33 58
-13.299 -0.278219 -2.89682 15 27 51
-14.1158 0.489623 -1.22556 234 237 244
-14.325 -2.22028 -0.87968 25 44 76
-15.9525 1.58121 -0.643836 68 63 78
-15.9897 1.55965 -0.647884 79 72 87
-13.6334 -0.889076 -2.29418 21 44 85
-14.5053 0.906065 -1.08514 227 231 241
-15.0795 -0.465902 -0.616232 169 155 164
-14.8838 -0.744783 -0.607144 151 139 149
-13.1427 0.377117 -3.52852 46 69 105
-13.1362 0.40939 -3.55648 50 74 110
-13.9006 -2.27136 -1.3872 20 43 79
-15.6823 2.01467 -0.553209 181 167 186
-12.9979 0.229039 -3.2084 28 47 82
-16.7573 0.968395 -1.63406 17 30 63
-12.9224 -0.244984 -3.20266 45 74 121
-13.0463 1.35216 -3.18757 48 76 119
-16.1522 3.08399 -1.37201 109 95 100
-13.86 -2.21591 -1.45199 29 59 99
-13.1389 0.0977556 -2.97976 48 77 125
-14.937 3.14097 -3.12642 103 163 212
-14.937 3.14097 -3.12642 102 166 214
-13.2699 -0.269394 -3.64156 25 44 78
-14.0705 -2.74153 -1.09597 20 28 51
-13.8876 0.059351 -2.92395 67 79 85
-15.0876 3.2318 -3.02496 123 159 210
-13.7257 -0.746064 -3.58233 21 37 68
-14.3044 2.70798 -1.70102 51 93 150
-13.8062 0.230829 -1.88308 37 54 93
-13.9718 -0.346076 -3.10266 52 65 80
-13.8894 1.23266 -1.5304 201 202 222
-13.7248 -0.804137 -2.54597 23 40 81
-13.7508 -0.187912 -2.71518 12 24 57
-13.1802 1.26954 -3.04473 14 28 55
-14.4331 0.516768 -0.998623 209 209 221
-14.4701 -2.59952 -0.700739 11 21 45
-16.9447 2.34156 -0.721399 28 43 71
-13.4569 -0.171213 -3.67215 30 51 84
-16.5901 2.02457 -0.450022 28 38 62
-15.173 -0.337214 -0.63087 192 172 180
-14.2751 -1.35873 -3.22871 29 47 83
-16.6462 -1.57562 -1.65944 17 33 64
-15.4806 2.41365 -3.37964 28 69 110
-17.0165 2.81572 -1.20591 36 77 120
-13.8294 1.0195 -1.6462 206 201 216
-14.1853 -0.0361531 -1.04713 217 220 231
-16.9641 2.82157 -1.29379 44 85 128
-13.1798 1.20977 -3.01245 15 31 61
-13.5178 1.80198 -2.02676 165 158 170
-15.1696 2.32108 -0.972247 157 135 152
-15.7746 -1.36602 -0.655886 150 132 138
-15.5751 -0.60695 -0.680331 140 126 131
-16.2155 2.89224 -2.7178 37 59 94
-14.1472 -2.45886 -1.00692 18 35 70
-17.0881 2.75593 -1.15177 47 92 135
-15.9147 2.39165 -2.91613 49 70 106
-15.4665 2.96941 -1.20381 145 118 128
-13.5983 -0.95891 -2.64201 15 23 45
-13.2919 -2.71952 -2.66626 108 99 101
-13.8605 -0.687101 -2.97368 101 114 113
-15.2229 2.50887 -3.46138 36 85 130
-16.7279 0.852824 -1.45504 12 28 60
-16.7279 0.852824 -1.45504 14 31 63
-14.3797 2.7539 -1.73999 27 71 118
-14.6242 1.70331 -1.2471 23 49 91
-13.5304 -2.47456 -1.83164 33 58 96
-13.9214 0.370113 -1.65068 197 197 217
-16.3815 3.23925 -1.32566 167 139 150
-15.39 -2.03339 -0.529221 18 35 60
-13.44 1.43231 -3.84072 84 94 110
-17.1995 2.41982 -1.03288 51 81 115
-14.707 0.0661561 -0.695294 201 201 215
-13.0766 0.590503 -3.34003 28 54 90
-16.7482 0.428961 -0.530572 23 31 51
-15.8619 -0.176945 -0.883383 17 25 48
-13.0841 2.08896 -3.02227 30 57 105
-13.7073 0.530608 -2.25731 30 39 68
-14.2617 2.90517 -1.96235 44 95 151
-16.3841 0.523432 -1.12028 14 22 43
-15.4647 -1.01654 -0.637652 155 134 144
-14.5553 0.54035 -0.912187 226 226 237
-13.7309 -0.7818 -3.48311 21 38 65
-16.5993 3.21181 -1.25672 92 94 103
-13.6834 -0.179095 -3.6914 28 49 81
-13.2147 0.449689 -2.85675 23 40 71
-14.0903 2.21962 -3.85097 31 47 84
-13.4895 -2.74114 -2.89705 96 93 113
-13.5057 -2.71406 -2.92661 93 91 110
-13.0642 0.920382 -3.40568 43 71 115
-13.8214 3.13181 -2.78227 54 108 168
-14.7603 0.582836 -0.839204 216 215 227
-13.8603 1.60522 -1.49658 65 101 151
-13.8603 1.60522 -1.49658 65 101 151
-13.8603 1.60522 -1.49658 65 101 151
-15.8581 -0.307397 -0.737079 174 147 154
-14.0268 2.4156 -1.86487 36 93 147
-13.8792 -0.911153 -2.0296 24 47 91
-13.6582 -0.578258 -3.7056 37 57 88
-16.3864 3.20627 -1.40884 102 94 99
-15.3421 2.85178 -1.21821 148 120 133
-15.3578 2.81452 -1.23355 155 125 138
-14.7985 -2.28642 -3.43641 22 42 78
-15.8316 1.65567 -0.542944 77 69 86
-13.7438 0.625948 -2.20672 178 172 189
-13.087 1.15911 -3.45292 37 56 84
-13.9791 -0.130073 -1.2675 213 225 243
-17.4379 1.63367 -0.97272 5 7 14
-16.471 2.40311 -0.530309 38 74 116
-13.6943 1.83227 -1.65694 59 92 139
-17.3256 0.364095 -0.967038 17 40 69
-13.6281 -1.48361 -2.2532 33 68 108
-15.2414 -0.237299 -0.639477 196 175 183
-12.9883 0.623969 -3.39361 11 10 11
-14.0335 -2.72154 -1.11391 14 23 45
-14.5778 -0.583943 -0.672904 177 177 189
-14.02 1.10018 -1.42164 234 240 252
-15.6732 2.52384 -0.774669 129 124 139
-13.9555 0.120562 -1.3803 218 223 240
-13.0559 0.413118 -3.07688 15 40 85
-16.1682 1.58253 -0.701862 117 93 106
-13.894 0.150304 -1.625 197 202 227
-13.8774 0.131727 -1.66036 145 156 188
-14.2522 0.435414 -1.1063 236 237 245
-15.8144 -0.838972 -2.47018 22 44 79
-15.7819 -0.834237 -2.49833 23 45 80
-13.2336 2.6892 -3.19014 91 125 173
-16.6349 0.321935 -1.75598 17 34 61
-15.7745 -1.29028 -0.669679 156 136 143
-14.0224 1.16998 -3.59781 18 29 58
-15.1817 -0.308697 -0.661652 161 151 159
-13.9941 -1.41014 -1.36029 13 24 48
-17.5047 1.75016 -0.210034 60 52 38
-15.0516 2.97156 -3.1952 103 140 193
-16.5488 1.86527 -2.64369 52 58 73
-14.8608 0.249142 -0.718616 201 197 209
-15.7378 -0.52205 -0.752589 156 138 146
-13.5902 -1.15133 -2.30206 30 55 102
-13.873 1.73402 -3.88712 26 41 72
-15.6729 2.16511 -3.11586 35 51 83
-15.6527 2.12807 -3.12544 31 46 78
-13.4399 -2.05269 -2.45695 24 48 93
-17.3353 2.07262 -1.1296 20 39 69
-13.73 0.783027 -2.60942 37 42 72
-13.5187 -2.14184 -2.02958 24 50 87
-16.0032 -0.294399 -0.821181 46 43 58
-15.1969 2.2827 -0.90563 127 117 137
-16.241 -1.24928 -2.22376 24 45 82
-13.9218 0.415543 -1.4868 208 208 220
-14.1211 -0.26139 -1.03471 194 197 208
-13.6411 1.63403 -1.76524 183 179 190
-13.3468 0.378681 -3.78601 28 47 83
-13.8841 0.176661 -1.59214 213 216 237
-14.4174 0.551144 -1.02496 200 199 211
-17.0786 -0.0579345 -0.545513 22 33 54
-15.6214 3.0499 -2.82485 73 99 144
-13.2646 0.694241 -3.7504 41 64 101
-13.7252 -2.65521 -1.53185 20 36 67
-15.3704 -0.0841805 -0.707023 176 151 160
-15.1419 0.0599556 -3.29316 81 89 100
-13.9331 -2.47715 -1.27319 39 63 102
-14.2386 0.441472 -1.12455 241 247 252
-14.2083 0.412509 -1.13532 230 237 245
-14.211 -2.78805 -0.979631 35 41 64
-13.469 1.72729 -2.54353 136 127 142
-14.465 -1.33597 -3.2976 29 51 84
-14.7528 -1.55587 -3.22499 28 44 77
-14.1149 -2.53364 -1.0197 32 50 82
-14.0202 -0.166958 -3.03028 21 39 66
-14.0196 -0.209888 -3.03573 22 40 67
-14.9713 0.784951 -0.877094 31 53 90
-13.8651 3.15908 -2.82882 57 112 172
-16.5775 1.94847 -2.5445 47 59 80
-13.2795 3.58878 -3.9247 63 61 57
-16.498 2.7822 -0.733289 184 191 211
-15.5364 -0.116109 -3.05863 93 94 95
-15.7328 -0.23316 -0.752052 186 157 165
-15.6067 -0.142504 -0.698942 178 153 159
-14.1073 -1.13439 -0.964299 16 28 53
-13.1812 0.474421 -2.88486 32 51 84
-15.3516 -1.62654 -3.25706 96 103 105
-13.9405 0.0262198 -1.38077 221 227 244
-13.6577 -0.613983 -3.66378 33 53 83
-13.2985 0.981643 -2.87476 11 23 45
-16.4006 2.4058 -0.57771 34 65 107
-12.787 -0.619721 -3.128 27 52 92
-15.9871 3.49871 -1.74215 73 50 58
-16.5714 -1.58567 -1.7029 14 32 62
-14.2486 3.29743 -3.01187 124 186 235
-14.4878 -2.39671 -0.772894 12 27 59
-13.0837 1.53479 -2.95149 12 25 61
-15.5646 -2.67679 -0.507926 16 23 44
-15.5449 -2.66371 -0.544195 22 31 57
-16.9789 2.59989 -0.922752 29 68 110
-15.853 2.58628 -2.87342 40 71 110
-14.2398 0.387062 -1.10303 233 234 243
-14.3747 2.21556 -1.42703 43 87 137
-13.7329 -0.378704 -3.58858 37 57 91
-13.7348 -0.412746 -3.61527 42 60 93
-16.4651 -0.920519 -1.9146 23 45 79
-17.2171 0.384308 -0.731136 20 36 62
-14.1009 -1.72879 -3.31163 23 43 77
-14.6676 2.0639 -1.24567 31 57 107
-15.3542 -2.54856 -0.391146 66 54 64
-14.4224 0.397632 -0.966615 222 222 234
-15.2588 2.20089 -0.840694 51 62 94
-15.2692 2.22531 -0.80648 116 124 153
-14.2161 0.417069 -1.13648 210 211 222
-15.3998 1.58738 -0.356364 21 31 56
-14.0946 -0.106359 -1.14365 219 223 235
-14.1469 0.434282 -1.18644 191 192 203
-16.5078 -0.935465 -1.38303 20 35 59
-16.5757 -0.835576 -1.41432 17 34 59
-16.1357 3.01148 -2.48853 33 56 90
-12.956 -0.291515 -3.14333 20 40 72
-14.2116 0.962232 -1.28587 236 238 246
-14.1827 0.949795 -1.31563 200 198 211
-12.9734 1.26188 -3.52443 123 131 127
-15.2028 2.57248 -3.43815 38 90 136
-17.16 2.61815 -1.22813 42 83 124
-17.2186 1.87716 -0.90929 23 33 53
-13.6928 0.714753 -2.1833 189 180 198
-14.9769 -0.715113 -3.23963 79 92 107
-13.08 0.437951 -3.04349 15 37 78
-16.4286 0.241428 -1.06451 11 15 28
-16.4613 0.255588 -1.03989 9 13 27
-13.0539 1.31827 -3.45407 87 102 111
-15.9629 -2.15107 -0.510781 24 41 68
-15.4476 3.24046 -2.79635 49 93 139
-15.4583 3.19849 -2.79609 72 116 162
-14.8753 0.573387 -0.806303 124 130 151
-16.5869 -2.34955 -2.12403 15 32 60
-13.7855 1.61144 -3.78928 25 47 80
-14.3579 0.41465 -1.02069 190 189 201
-17.1352 2.66432 -1.36781 18 60 102
-15.095 0.137664 -0.653856 177 163 172
-16.1031 2.98798 -2.52238 35 59 92
-16.6083 0.0706815 -0.547647 20 26 43
-14.7992 -2.18847 -0.63297 17 32 60
-14.3058 -1.35523 -3.2427 31 49 86
-16.6237 -1.68393 -1.56594 15 31 55
-16.5721 1.94964 -2.58029 48 58 78
-15.0654 2.58 -1.11849 150 122 139
-14.9353 -0.860793 -0.611281 176 162 174
-17.3625 0.336399 -0.962851 17 39 69
-14.3541 1.94561 -1.32576 44 78 130
-15.1761 2.04584 -0.880546 30 51 84
-15.6453 -0.0943587 -0.715698 58 57 74
-15.0835 -2.2505 -0.483794 15 28 57
-14.8755 1.36976 -0.853422 36 62 106
-15.5291 -0.00242971 -0.834377 34 36 58
-13.7956 1.00311 -1.72526 171 163 176
-12.9243 -0.566508 -3.02724 31 63 104
-15.9417 -0.37702 -0.788012 176 150 157
-17.0534 2.29324 -0.729358 24 37 58
-16.6543 -1.59007 -1.63341 19 35 65
-17.0815 2.67849 -1.05193 37 77 121
-13.6694 3.13336 -2.84527 50 110 171
-15.5066 2.87356 -3.01927 97 125 174
-13.0313 0.786588 -3.27957 46 68 100
-14.2327 -0.280187 -0.990261 198 197 213
-15.8063 3.17721 -1.34338 147 116 127
-13.3246 -2.60239 -2.51971 31 50 89
-13.1762 -0.189207 -2.89242 7 19 42
-13.1414 0.108448 -2.9396 43 70 116
-17.1693 2.5856 -1.36533 36 71 112
-13.6201 -2.71612 -3.07651 71 71 92
-13.0998 0.943593 -3.14075 13 34 73
-14.0435 0.573226 -1.32525 194 193 205
-13.3562 2.47077 -2.51033 55 101 162
-16.7533 -2.45286 -1.46507 40 48 72
-13.4628 -2.63593 -2.05367 28 50 94
-17.322 0.0877009 -1.13784 22 38 69
-14.2344 0.49227 -1.15039 210 211 222
-13.0578 1.77683 -3.02507 21 39 79
-15.1109 -2.43236 -3.3538 38 56 90
-15.9891 -1.27052 -2.49105 19 41 77
-17.2966 2.13363 -1.43308 18 43 77
-13.0348 0.137134 -3.05011 40 68 109
-14.4824 0.612984 -1.00045 229 228 240
-13.6412 1.19725 -2.30293 114 107 119
-16.0252 3.38969 -1.59758 89 81 92
-15.4104 3.11468 -1.35375 62 33 39
-13.6264 -0.796755 -2.64132 18 27 53
-13.3284 2.94882 -3.1318 62 110 176
-14.9374 -0.620197 -0.615498 152 139 149
-16.1936 2.08107 -0.509666 145 127 145
-15.6047 2.36338 -3.09838 44 64 101
-15.1251 -1.80545 -0.545692 14 20 40
-16.5334 3.09278 -1.90616 53 78 103
-14.9983 0.118846 -0.646652 166 153 162
-14.3158 3.51134 -2.9682 74 72 71
-12.7867 -0.751253 -3.17446 26 42 77
-14.6984 -0.273735 -0.6589 191 186 197
-17.0677 -0.369896 -1.23061 83 43 49
-13.4185 -2.33095 -2.29163 57 86 132
-14.4082 -0.490127 -0.815313 197 196 208
-14.0578 0.893187 -1.38555 219 224 242
-15.818 2.63891 -0.897087 126 118 132
-15.0934 1.0817 -0.719054 19 31 60
-13.4368 -0.563437 -2.86264 10 20 44
-13.9324 -2.54019 -3.31441 95 103 132
-13.5955 1.74703 -1.82891 138 141 162
-14.2256 2.47079 -1.74153 62 109 171
-13.5808 1.22215 -2.62506 132 121 137
-13.0776 -0.595544 -3.62513 57 79 119
-13.66 -0.650236 -2.67121 23 40 78
-13.6638 -1.33801 -2.26077 36 68 118
-15.6857 -0.8287 -2.55049 23 45 80
-15.8286 -0.273954 -0.810957 149 129 140
-14.31 2.70096 -1.73158 53 97 157
-16.5088 -1.44723 -1.97614 26 44 79
-13.7945 -0.0559288 -3.61626 33 52 86
-12.9758 -0.224529 -3.12052 44 65 104
-14.352 -1.61739 -3.23229 31 51 85
-16.6713 3.05029 -1.91685 26 54 90
-16.3594 2.35934 -0.600148 48 79 120
-14.1175 0.994037 -3.20865 20 35 66
-14.7505 -0.580018 -0.643978 173 162 172
-15.7036 -0.19482 -0.749748 177 150 158
-16.1129 3.44829 -1.94394 114 111 108
-14.2458 0.410805 -1.09475 248 254 255
-17.1605 2.60022 -1.40492 25 61 101
-13.1033 0.519988 -2.9567 42 64 100
-14.9794 2.168 -0.944022 13 23 54
-16.5543 3.18542 -1.28876 174 169 187
-15.2745 -0.120517 -0.681703 161 148 156
-15.2528 -0.0831521 -0.685378 154 142 149
-13.9524 -0.175939 -1.33963 43 67 110
-16.4985 3.07807 -1.89333 37 62 96
-13.7064 -0.889671 -3.08674 25 41 67
-14.4911 -1.96511 -0.827738 18 35 67
-14.5625 1.06151 -3.48986 35 55 90
-15.8476 2.23268 -0.60671 188 175 194
-13.2744 -0.333691 -2.91123 8 14 35
-13.201 1.32617 -2.80167 17 32 55
-16.3022 -0.759861 -2.12686 18 44 78
-15.7072 3.30477 -2.64574 53 69 103
-14.4529 -1.06376 -0.792978 20 32 67
-14.4113 -1.05202 -0.796542 13 23 58
-13.7968 2.80108 -2.35049 57 109 178
-15.3213 2.71967 -1.07977 114 101 108
-15.2915 2.6902 -1.0686 118 102 110
-14.1157 -0.292535 -1.05347 201 208 224
-14.0181 1.42133 -3.67438 19 32 61
-15.7799 -0.112663 -0.82106 23 29 50
-13.6615 -2.67815 -3.14119 71 72 97
-14.0213 -1.49382 -3.10339 26 42 74
-14.2578 0.685084 -1.19103 196 194 206
-13.8713 1.45181 -1.52552 199 191 204
-13.9049 1.44085 -1.55067 199 194 206
-15.3452 2.48988 -0.863681 156 129 146
-15.7076 -0.222548 -0.712288 173 148 155
-14.5155 -2.04381 -0.791606 17 29 60
-13.3792 -0.11522 -3.63216 25 46 80
-13.2651 0.982409 -2.92574 10 25 49
-16.2251 2.63518 -0.733178 163 167 184
-16.079 -0.681729 -0.790864 152 128 135
-16.0415 -0.689841 -0.770616 155 132 139
-14.3502 2.86828 -1.88279 43 89 141
-17.0942 1.29291 -1.4958 25 44 75
-13.7805 3.10456 -2.72593 52 105 165
-13.1017 0.477997 -3.0453 29 52 92
-14.4184 -2.462 -0.782892 14 30 59
-15.1406 2.26332 -0.957724 23 29 55
-14.9042 -2.28904 -0.641849 7 25 54
-13.7266 1.3868 -1.67021 157 150 162
-13.9041 0.333392 -1.58664 196 196 210
-14.0462 1.32495 -1.35683 175 173 189
-14.0985 0.968326 -1.36413 202 208 230
-13.3348 1.37582 -3.58089 33 58 97
-13.6811 -0.32433 -2.16255 39 73 121
-13.6742 -0.345459 -2.19982 32 61 109
-15.1782 -2.77672 -0.493586 9 22 43
-14.1761 0.403734 -1.15839 191 192 203
-15.9947 -3.001 -0.423297 60 57 74
-16.0333 -2.99784 -0.403719 46 42 51
-16.2217 1.99574 -2.80034 27 59 96
-13.7461 1.02816 -1.73415 162 153 167
-13.4116 2.488 -2.47768 50 98 163
-16.9429 2.86177 -1.20483 25 75 122
-16.4595 -1.46832 -1.99675 27 45 79
-13.721 1.17214 -1.87759 183 174 192
-14.499 -2.44893 -0.746191 12 27 55
-13.9143 0.361311 -1.6138 200 200 222
-14.0399 -2.11492 -1.29626 27 52 92
-15.5026 -2.26968 -0.406515 8 26 54
-17.1126 2.58394 -1.62417 32 67 108
-13.3962 -0.485528 -2.83089 14 23 45
-14.2284 0.873992 -1.20702 230 232 240
-13.0179 0.335518 -3.43905 35 62 107
-13.7904 0.751764 -1.77561 186 178 189
-13.7992 0.783216 -1.74702 192 184 195
-13.9021 -1.43674 -1.68226 21 40 84
-16.4955 2.61235 -0.628983 48 65 95
-13.1691 3.53146 -3.81471 86 85 83
-15.02 -2.41383 -0.691675 16 26 54
-13.0333 -0.0856564 -3.45654 62 93 138
-16.1311 2.21711 -0.508138 179 164 183
-14.4744 2.27693 -1.40746 35 72 119
-17.2506 -0.094127 -0.171624 87 85 81
-13.2091 2.31884 -2.70386 27 62 111
-15.3645 -0.916133 -0.64244 157 143 149
-14.1212 3.04196 -2.23511 67 109 166
-17.1564 0.337645 -1.30178 13 25 52
-15.6674 -0.161758 -0.755237 169 145 155
-14.3139 -2.32715 -0.904881 10 22 54
-13.152 1.33752 -2.84062 39 52 73
-15.8172 3.54433 -2.33759 71 54 60
-16.1204 2.54144 -0.758618 164 164 180
-14.1537 0.600042 -1.18352 213 215 225
-14.0549 0.204782 -1.23132 238 245 253
-17.1999 0.100655 -0.722847 21 37 65
-15.7174 -2.68534 -0.486878 15 21 39
-14.1034 0.701678 -3.21855 19 35 66
-15.0173 2.81201 -3.32487 61 115 167
-16.7058 0.0660195 -0.552145 15 18 38
-14.9316 0.179674 -0.678965 152 142 151
-15.1431 2.34113 -0.959524 112 101 121
-14.6058 0.874976 -0.97635 85 104 134
-14.5667 0.866465 -0.993218 181 192 211
-13.5216 -1.96327 -2.33658 21 51 89
-14.077 -2.55879 -1.14 32 54 88
-17.1847 0.355925 -0.614039 20 35 60
-13.6081 2.12934 -3.79367 55 87 133
-13.6081 2.12934 -3.79367 55 87 133
-15.6093 1.01634 -0.759497 15 21 41
-15.844 -1.27587 -2.51222 18 39 76
-14.0429 1.07627 -1.37832 220 220 233
-14.7077 -2.55044 -0.621718 21 39 65
-13.8223 -2.57122 -1.34696 18 37 72
-13.4998 3.0511 -3.31383 58 107 170
-14.0552 -1.05867 -0.993482 29 46 84
-14.3608 -0.597228 -0.858285 169 173 191
-13.3859 0.120572 -3.62619 34 57 94
-13.7179 1.50198 -1.68885 189 182 192
-15.793 -1.41402 -0.683081 143 128 133
-13.161 1.6853 -3.47698 48 80 125
-14.4284 -2.41888 -0.777358 15 34 67
-13.5426 2.96157 -3.44762 92 141 204
-14.6284 -0.329866 -0.737851 212 210 220
-16.1925 2.16645 -0.525996 162 148 167
-16.19 -1.29899 -2.19663 26 48 84
-14.1426 1.69587 -3.69916 12 25 56
-16.6229 2.46885 -0.587517 24 45 78
-17.1194 2.48578 -0.734649 111 112 116
-13.0125 -0.441064 -2.97378 37 67 106
-13.1856 -0.429754 -3.68038 30 52 91
-15.2921 -0.23634 -0.646482 191 168 175
-13.3897 -0.103522 -3.73607 59 70 91
-13.0459 0.174981 -3.03243 22 45 85
-13.3338 1.09341 -2.90111 15 25 52
-13.2089 1.39886 -3.54909 43 74 117
-13.2121 1.36519 -3.53946 45 75 118
-14.8706 1.34015 -0.892745 35 64 110
-13.9931 -2.51003 -1.19344 47 71 115
-16.8196 3.03383 -1.10232 161 162 169
-16.4011 2.81049 -0.725746 216 219 237
-14.282 3.37449 -2.97769 124 167 209
-13.1895 1.41804 -3.53049 47 77 120
-16.0508 1.4351 -0.704633 30 32 51
-16.3305 3.31872 -1.47748 126 108 126
-14.0946 0.436261 -1.26494 230 231 242
-16.1739 -1.29691 -2.23415 28 48 85
-15.9946 -1.80198 -0.699516 18 27 53
-13.6775 1.79308 -1.68455 53 87 132
-14.3158 2.2221 -3.9959 26 31 33
-14.2359 0.183786 -1.06263 245 251 254
-17.25 2.25242 -0.971419 27 46 75
-13.6181 -1.80936 -2.00323 29 62 102
-13.5948 -2.64408 -1.7421 35 56 92
-17.1419 -0.0802194 -0.59663 15 26 50
-13.7557 -0.182383 -2.33554 40 68 114
-13.2439 0.261737 -2.86245 25 43 76
-13.8419 -1.46576 -3.03324 26 42 70
-14.0726 -1.23368 -1.03063 21 32 59
-16.9467 0.542648 -0.551971 14 18 31
-14.9766 1.1604 -0.67947 35 46 77
-13.9103 3.18543 -2.88435 61 116 176
-14.0187 -0.106864 -0.99011 58 75 98
-14.0849 -2.05713 -1.21014 30 54 97
-14.2688 0.875107 -1.18579 201 202 213
-15.2273 0.429114 -0.648325 27 36 57
-13.2222 0.643069 -3.65289 35 59 99
-15.9372 -2.38405 -0.617464 16 23 43
-13.6128 -1.65853 -2.78612 43 52 85
-12.9545 -0.737096 -2.83387 12 28 58
-16.9803 2.70543 -1.52959 32 59 94
-16.1494 3.05446 -1.1405 128 110 122
-14.3315 -0.0246382 -0.916909 232 234 243
-13.6658 -0.394961 -2.49327 30 53 97
-13.3134 2.69124 -3.27609 80 126 179
-14.1736 0.905368 -1.31879 202 200 213
-15.8416 2.39133 -0.714832 166 160 178
-14.7951 2.13511 -1.25732 21 37 70
-14.7828 2.17134 -1.23668 20 39 72
-13.7708 -2.35713 -3.20578 34 50 82
-16.9766 2.70422 -1.52976 32 58 93
-13.6329 1.92859 -3.87949 32 59 99
-14.1922 -1.45238 -3.24817 23 40 75
-13.8864 -0.558691 -2.87419 23 43 74
-13.7163 -0.48018 -2.52562 37 57 100
-13.3315 -2.65735 -2.38742 31 51 89
-14.7729 -0.542771 -0.642817 175 163 173
-15.4479 3.13539 -1.36119 66 36 43
-13.7255 2.70755 -3.31296 64 110 169
-13.1711 1.37055 -3.4994 55 86 127
-16.1305 2.56502 -2.64616 36 74 115
-16.2276 3.09044 -2.25741 31 61 96
-13.6187 1.76424 -1.88893 158 163 190
-13.6861 2.50551 -3.73338 58 99 150
-14.8617 1.12628 -0.795571 24 46 85
-13.776 -2.38319 -1.5909 18 41 79
-14.3378 -1.89001 -1.65125 17 36 72
-14.4097 1.95637 -1.39943 35 69 114
-13.0711 0.49849 -3.35669 61 92 126
-16.456 2.99732 -0.870717 221 219 233
-15.2574 2.97366 -1.26689 63 30 46
-13.7256 -2.10557 -1.71934 29 49 92
-13.8066 -2.09721 -1.51101 23 45 81
-13.8392 0.219608 -1.70852 162 165 186
-12.9712 1.09625 -3.47661 16 13 14
-15.6739 2.4568 -0.717309 142 137 152
-13.1734 0.4487 -2.90194 15 33 68
-13.2202 1.92518 -2.79415 19 33 62
-13.1616 0.671448 -3.01088 31 55 99
-14.1577 1.66521 -3.68437 21 36 68
-14.0383 2.91247 -2.13752 57 106 164
-15.685 -2.90301 -0.436418 44 49 69
-15.3676 -1.66359 -3.26119 126 128 119
-15.3588 -0.36563 -0.70144 158 138 148
-14.683 -2.53976 -0.659701 26 37 63
-14.7013 -2.57602 -0.644138 15 23 46
-16.2445 2.61749 -2.75734 38 57 90
-13.5889 1.33951 -2.07237 137 127 142
-14.9733 -1.20221 -3.16587 27 46 80
-14.9486 -0.707519 -0.602398 159 146 156
-14.6345 -2.84756 -0.710817 42 49 69
-15.4886 2.42103 -3.34608 29 70 111
-14.8469 2.49537 -1.23478 15 21 47
-13.9579 -0.468122 -3.71262 69 82 102
-16.0063 2.11813 -3.06462 22 60 98
-14.3787 2.69152 -1.7482 46 87 135
-13.5396 -1.62421 -2.44484 20 46 93
-15.4463 1.77486 -0.487529 25 45 78
-13.1609 0.402212 -2.90705 16 34 70
-14.3612 2.89427 -1.86629 50 90 140
-13.3278 2.3801 -2.46186 45 83 136
-14.6148 -0.216637 -0.757915 197 196 208
-14.2294 3.32916 -3.18924 74 97 135
-15.4875 3.09351 -1.21745 65 38 46
-16.2933 3.37142 -1.81416 158 156 144
-14.7564 -2.56108 -0.616098 17 35 61
-14.7608 -1.87822 -0.743119 7 13 31
-13.982 -1.93374 -3.17716 31 36 58
-17.1476 2.65219 -1.23553 38 82 125
-14.4604 -2.35284 -0.7331 15 31 61
-13.1122 1.32249 -3.25579 44 74 119
-13.3339 1.96916 -2.41429 141 134 154
-14.8425 -0.164966 -0.652869 151 150 167
-16.2694 1.73681 -0.648025 18 20 34
-14.2811 -2.33226 -0.970727 17 35 68
-16.1862 -1.1886 -2.35344 13 34 69
-14.2941 0.300838 -1.0434 204 205 216
-14.6611 -1.36455 -0.601891 99 91 92
-14.9908 3.0975 -3.13924 112 154 207
-14.1074 0.485401 -1.29106 231 232 242
-15.2011 3.26957 -2.9691 96 146 196
-14.5286 -2.2816 -0.729972 18 33 65
-14.664 2.1197 -1.24462 34 58 107
-15.0211 2.86042 -1.36721 78 43 50
-15.0567 2.88522 -1.37062 81 45 51
-14.2495 -0.683727 -0.893355 24 42 76
-15.3486 3.01415 -1.17449 59 33 44
-12.8047 -0.518813 -3.25575 145 145 145
-13.0933 0.0424246 -2.94185 35 59 104
-16.9979 0.359357 -1.41523 20 36 63
-15.6324 2.36242 -3.11162 45 65 101
-13.5931 -1.71272 -2.09681 36 71 120
-12.9298 -0.412254 -3.05662 21 45 85
-13.2172 2.5658 -2.96455 51 96 157
-15.5835 -0.413718 -0.721895 166 146 154
-16.6808 0.428104 -0.550093 17 22 38
-13.4207 2.60105 -2.43329 34 85 141
-16.9033 2.9014 -1.20608 40 93 142
-16.6306 1.99568 -2.52436 55 62 78
-16.3915 2.69332 -0.647408 220 216 235
-16.4081 2.71638 -0.680391 226 223 241
-16.4433 0.906606 -0.675019 15 24 46
-14.3672 3.10833 -2.12689 160 152 167
-14.7105 2.05481 -1.17741 31 52 96
-13.682 -2.56291 -3.08068 59 64 92
-13.0105 1.22444 -3.46984 149 150 139
-14.166 -1.20139 -0.958429 14 22 48
-13.7901 -0.594855 -2.81259 24 42 78
-13.6013 1.866 -1.92593 53 84 135
-17.1223 -0.385023 -1.17856 99 52 58
-13.5975 3.1251 -2.99552 79 127 196
-13.6819 -1.17098 -2.80196 29 56 94
-14.5589 2.61119 -1.49556 31 56 94
-14.5679 2.57284 -1.47701 24 51 92
-13.5648 3.18343 -3.21683 99 150 216
-13.2933 2.75456 -2.73226 66 113 177
-14.9138 -2.20584 -0.620956 11 30 63
-13.4904 -2.18552 -2.19494 27 51 98
-13.1992 1.65521 -2.86051 14 26 58
-16.1521 1.3309 -0.812477 18 23 46
-13.2185 1.53882 -2.79779 31 45 71
-16.0199 2.15999 -2.89958 39 59 92
-16.2339 -1.21728 -2.25204 22 42 79
-17.1599 2.62361 -1.36801 29 67 107
-13.738 -0.523384 -2.63905 25 46 86
-14.7078 -1.06621 -0.56323 16 24 42
-14.0867 0.38561 -1.26655 229 230 241
-15.2426 2.43873 -3.41628 31 74 117
-15.6179 -0.165201 -0.737494 178 153 159
-16.2459 2.55797 -0.702781 162 166 185
-13.7597 -0.639836 -2.19334 28 55 103
-14.872 2.67927 -1.23886 33 33 55
-14.9551 1.21475 -0.86006 28 48 86
-13.9335 -0.984569 -1.22914 33 61 100
-13.5397 -1.67592 -2.55248 27 50 98
-13.4198 -2.04804 -2.52944 25 50 95
-15.7232 -0.726475 -2.42589 17 43 76
-14.3299 3.29948 -3.02871 122 193 244
-17.2435 -0.295787 -1.13022 35 39 59
-14.2272 0.465657 -1.13844 212 212 223
-13.9588 -1.4569 -3.0779 21 36 68
-14.0653 2.90244 -2.128 67 122 179
-14.1887 0.451176 -1.16248 193 194 205
-13.1119 1.78174 -3.1972 25 46 87
-15.0436 -0.705027 -0.596623 182 168 177
-13.6885 0.947271 -2.36348 148 137 153
-14.668 -0.649529 -0.647816 164 157 166
-14.3119 0.448398 -1.06722 224 225 235
-15.0235 2.29703 -1.07936 14 21 48
-15.5147 -2.0615 -0.425845 11 30 61
-13.2636 1.0174 -2.92373 11 24 47
-12.9342 -0.593673 -2.95829 42 76 128
-13.4059 0.6317 -3.73325 33 54 91
-14.1742 2.89489 -1.96343 48 93 150
-15.2641 2.04915 -0.719549 20 33 67
-15.2501 2.08429 -0.741182 23 39 72
-14.6057 0.270649 -3.38991 28 45 77
-14.5882 0.262913 -3.42906 26 42 74
-14.4466 2.76646 -1.7119 67 89 133
-14.4491 2.80343 -1.73483 82 94 134
-14.4558 0.789862 -1.04027 198 200 211
-13.9892 2.17505 -1.66929 62 104 159
-13.9145 0.383109 -2.87085 14 23 46
-14.417 0.471573 -0.99654 205 204 217
-13.3408 1.40416 -3.6272 35 60 98
-15.4384 -0.821839 -2.68351 15 43 78
-15.4719 -0.849619 -2.68124 13 43 79
-14.071 0.542436 -1.28434 216 216 226
-13.1986 1.137 -2.49563 164 153 171
-13.4955 2.87541 -3.46889 85 134 197
-15.2842 2.22935 -3.43333 59 73 103
-16.418 0.0203523 -0.970879 20 25 43
-15.6908 2.14137 -0.633049 153 150 166
-13.7919 1.25476 -1.67957 160 149 159
-16.2129 3.14377 -1.02481 120 94 98
-16.4169 0.0224473 -0.971013 20 25 43
-14.1329 -1.14799 -0.92189 16 27 52
-14.2098 0.542216 -1.17324 194 194 205
-15.2053 -0.200716 -0.648119 184 164 172
-14.2529 2.9041 -1.95573 45 95 151
-17.4287 1.91583 -1.0919 114 112 101
-14.9342 -2.77702 -0.637826 17 23 44
-16.3544 2.23303 -2.68203 35 71 110
-15.4445 -2.85424 -0.489711 34 42 67
-17.1599 1.37496 -0.76218 19 24 38
-17.162 1.33325 -0.774663 17 23 38
-13.6203 0.219714 -2.82807 12 18 38
-16.1021 2.63997 -2.72171 44 88 131
-16.867 1.47185 -0.404021 27 40 61
-15.8767 2.75109 -2.72803 45 92 134
-15.3289 -2.84654 -0.502927 35 42 65
-15.3694 3.09541 -1.37076 75 38 40
-17.5969 1.65811 -0.83202 13 9 8
-15.8214 -0.165883 -0.786084 41 39 55
-14.3234 2.55217 -3.7838 67 74 97
-13.3058 2.54572 -3.02412 47 89 147
-13.2874 2.48468 -3.43561 74 115 167
-13.6495 1.78172 -1.8559 91 111 152
-14.3215 0.496517 -1.06972 227 228 238
-17.2408 0.33284 -0.807315 17 26 43
-15.3685 -1.16641 -0.631588 143 128 134
-15.4065 -1.15639 -0.612692 145 131 138
-13.6081 1.49563 -2.3335 168 154 171
-15.024 1.99269 -0.913479 18 34 75
-12.9394 -0.619533 -2.90388 25 58 99
-16.3893 0.844393 -0.64043 12 20 42
-17.3485 0.344677 -0.73171 96 95 90
-14.3945 1.26439 -1.20866 35 64 105
-16.1676 3.24629 -1.42541 118 100 108
-13.5221 -2.70196 -3.04664 71 73 93
-14.5023 0.566029 -0.967754 242 242 251
-13.1085 -0.618571 -3.58199 78 105 140
-16.2855 1.98651 -0.520945 26 37 70
-13.863 1.50905 -1.56873 166 161 178
-13.8358 1.48407 -1.59193 166 159 173
-13.9086 0.512091 -1.54846 189 187 198
-13.1821 2.22551 -2.7891 50 81 130
-14.2831 2.55093 -1.60597 37 79 130
-13.316 -2.73463 -2.62666 45 53 79
-16.2074 3.39955 -1.66886 48 57 81
-13.2986 2.66543 -3.00524 41 84 139
-13.9787 3.48493 -3.05507 83 79 74
-15.2437 2.81693 -1.20677 131 107 123
-13.8594 -2.27219 -1.50547 23 51 90
-15.2849 2.35721 -3.25953 34 61 97
-14.5332 0.31043 -0.870887 172 169 182
-14.3511 -0.816369 -3.27176 20 40 69
-15.0404 2.4687 -1.13959 152 125 141
-14.907 0.787959 -3.43422 61 78 104
-15.2592 -0.34692 -0.649525 163 149 156
-13.7963 0.59605 -2.98752 76 84 98
-15.6011 2.2121 -0.670527 152 150 167
-14.3444 2.47023 -1.59462 50 92 153
-14.6478 -2.55219 -0.636674 20 39 66
-13.9008 2.21115 -1.66179 58 104 163
-13.5948 1.36137 -2.15041 117 109 121
-14.6483 -1.40595 -0.606927 108 101 99
