ply
format ascii 1.0
element vertex 974
property float x
property float y
property float z
property uchar red
property uchar green
property uchar blue
end_header
-3.28274563413 -0.530676102704 -2.96645 22 41 81
-4.14666013088 -3.77110360936 -0.629681 163 147 153
-2.84837741283 -1.62509835226 -2.78983 10 22 45
-2.96537072363 -1.01755606266 -3.08196 43 70 115
-2.54860740254 -1.69366569164 -3.00353 49 70 114
-2.65624044687 -2.73771336309 -2.60813 29 48 94
-3.87384299084 -0.104673071618 -2.2199 106 105 121
-3.27019919246 -1.80055117069 -2.55655 33 50 90
-3.52290431105 -1.57117330796 -3.02078 90 96 104
-2.07863914701 -3.44896631275 -2.15801 38 66 113
-5.33385181524 0.781550648827 -3.39918 100 130 153
-4.20773446157 -2.66561855503 -0.629454 169 152 163
-5.02111300104 -0.0693721679984 -1.49611 34 72 125
-3.66079190477 -1.78078302661 -2.75522 12 20 49
-4.98757546315 -4.54604640748 -1.92484 24 41 74
-6.7281571563 0.201519081173 -1.5478 51 31 40
-2.98409466156 -2.36869017302 -2.70484 25 43 81
-1.92897108346 -3.98345198782 -1.74427 5 23 58
-2.75638733711 -3.50532544433 -3.35233 20 41 72
-4.63351584032 0.725019160881 -3.60393 66 118 177
-4.01181122747 -2.45336205618 -3.20298 24 48 79
-4.28448206552 -1.59464440461 -0.938914 247 254 254
-3.98840400318 0.0889685666014 -2.06375 51 93 146
-2.69517652188 -2.7905482196 -1.98517 19 43 83
-3.36711882668 -1.99754739115 -3.44643 21 40 69
-6.21632833995 -1.59619917641 -0.775583 80 67 83
-6.26161265286 -1.60466613602 -0.7611 34 32 50
-4.56909685018 -1.59949818887 -0.932442 34 66 105
-4.1890916854 -3.83881549592 -0.655355 173 152 162
-4.229089981 -3.85382970083 -0.612338 161 143 149
-6.39603211836 -1.15378448393 -0.551603 116 107 121
-6.57073222514 -3.21038379568 -1.14431 13 37 68
-3.28000255922 -0.575953779764 -2.96725 28 51 92
-2.66405021177 -1.3747202372 -3.33713 23 48 93
-3.76638471103 -1.08543749619 -1.60033 205 206 227
-5.33156062409 -1.92108115751 -3.01648 37 54 84
-3.1515271651 -3.38232861209 -3.31899 23 44 78
-2.9639090984 -0.867548819834 -3.34812 30 57 102
-5.52608442174 0.0494244093034 -1.30036 31 32 56
-6.51267191999 -0.33622049458 -0.974898 139 117 133
-2.48259027827 -3.93371214425 -1.1649 25 45 81
-3.55091564959 0.370905674623 -3.31785 29 30 30
-2.84031271349 -1.17930950022 -3.02696 33 55 95
-2.71776850706 -1.32519797088 -3.39945 22 43 85
-2.71970843792 -2.55916967842 -2.26484 22 38 66
-5.53534302282 0.952224014258 -2.85421 103 116 145
-2.80548709687 -1.57491286004 -2.85925 9 20 46
-2.85187977668 -3.69387922999 -1.10448 13 24 53
-3.51394767268 -1.52332477154 -1.86849 186 185 208
-1.88888205314 -3.68951986547 -2.33091 37 58 103
-6.64893867914 -0.656634523536 -2.68684 45 65 100
-2.56170203993 -3.81309465975 -1.17912 28 51 92
-3.82015915853 -1.71975598385 -1.1352 232 237 247
-3.72805443253 0.266100884271 -2.90147 27 50 94
-2.29445336327 -3.49736842181 -1.7805 16 42 83
-5.41284611813 0.927608831106 -2.78923 76 124 189
-2.28341265979 -3.57306136248 -1.58143 18 42 82
-3.96271632608 0.132264012612 -2.19078 50 88 141
-4.60842080156 -4.21781925216 -0.724481 162 141 150
-3.83164862949 -0.326248743276 -2.27073 163 147 166
-6.88180527612 -2.01396800463 -1.57717 18 34 66
-3.31403823711 -1.33317435599 -3.82988 131 135 130
-5.35707761621 -1.84913407805 -3.08307 23 39 70
-2.46295370444 -1.80331398439 -3.46085 20 39 77
-5.03273253844 -3.47532943376 -0.796277 132 113 118
-4.61291223543 0.6856358514 -3.65182 90 142 196
-3.72868333697 -0.779625811659 -2.71437 116 107 123
-6.15745417858 -3.72909960625 -1.22831 50 36 48
-4.76297417568 0.576946902154 -2.13168 59 122 182
-4.07542278341 0.494800439164 -2.48248 44 88 138
-5.3172615888 0.85547392518 -2.88764 91 128 179
-3.38683160708 -0.389790752732 -3.06712 19 35 73
-5.08599860193 -4.41677830371 -1.93866 21 41 73
-2.62845100908 -1.47763765717 -2.9449 12 26 62
-4.30025163939 -3.74964202942 -0.610705 142 128 134
-5.45834345524 -0.53596011514 -0.967035 15 27 63
-4.72730393879 -2.87531720271 -2.87078 40 56 87
-2.32109699755 -1.99915455752 -2.89011 44 73 123
-4.75721755136 0.0503752183569 -1.65127 36 86 136
-5.46831772665 -0.597381026155 -3.54897 27 45 80
-2.69089229711 -4.43993836942 -0.653472 13 24 50
-4.02735017507 -0.896422241045 -1.50385 178 171 184
-3.80156603167 -1.08194474629 -1.56251 188 189 210
-6.54626148572 -2.97379876489 -1.31137 17 34 63
-2.64326374114 -2.82049604249 -1.98915 22 48 88
-4.43189427152 -2.72648569156 -3.03618 37 57 89
-4.68703715326 0.812977284786 -3.53298 122 173 218
-2.0652673191 -3.81405926026 -1.81754 20 45 82
-2.21728164545 -3.2235502048 -2.14247 28 55 102
-6.95281061366 -0.934732535591 -0.562879 32 60 100
-3.72870844222 0.429158421267 -3.17148 37 69 118
-2.9469499671 -2.250627076 -2.59486 21 41 82
-5.38487064231 0.786917974428 -2.42115 71 118 182
-4.84044621078 -4.07739816978 -2.24202 24 45 81
-2.72316575125 -1.30989522459 -3.43552 24 43 84
-2.8658982952 -3.72912472954 -0.986625 9 19 49
-4.31269607631 -1.28477329449 -1.144 242 244 251
-3.3974518197 -0.293174887141 -3.12477 28 49 87
-3.40082282532 -0.237152974276 -3.09625 21 39 77
-2.28650513814 -3.13709396349 -2.51326 28 56 101
-2.99586792857 -2.22324107152 -2.57174 24 44 87
-3.36353626407 -0.307908562396 -3.30067 30 60 104
-2.05761762499 -3.40484709685 -2.61428 37 60 103
-2.88492731864 -4.70487679778 -0.733374 23 30 54
-1.95854580073 -3.50088642233 -2.39875 25 51 95
-5.77140256349 -3.21304901094 -2.08084 12 21 46
-3.32993265637 -4.92236849829 -0.584046 16 26 51
-5.20877178979 0.174640866707 -1.56693 43 76 127
-5.99815846288 -0.814351130859 -0.627801 191 181 199
-2.76535024531 -4.04958995896 -0.896651 29 49 85
-3.74440656321 -2.69233487073 -0.658475 164 168 180
-4.90049837761 -3.24723644004 -0.74623 176 150 160
-3.33207828758 -0.472495062799 -2.97965 25 42 83
-3.56091197328 -1.59358583618 -2.97181 48 54 69
-3.59936609334 -1.22700823227 -2.30358 135 130 144
-6.62873124555 -0.585578007102 -2.77306 37 57 93
-3.57328779234 -0.432694815191 -3.48356 32 56 93
-4.07036689134 0.539985844501 -2.54193 43 85 135
-3.75492243437 0.353453114219 -2.99409 19 44 85
-4.02524678513 -0.800569813581 -1.52017 172 164 175
-4.88261267862 -4.11597651332 -2.20347 27 47 84
-3.26967566854 -2.13816237917 -2.89132 19 32 67
-4.29654340645 -0.34901859959 -1.56985 48 83 128
-3.54340260405 -4.69389192632 -0.60247 19 27 54
-5.02889000456 -3.30757062078 -0.864995 169 141 150
-4.07419299836 0.488794839382 -2.47666 44 89 138
-2.73726549758 -4.08389494176 -0.896394 23 47 86
-3.2390084021 -0.62179146603 -2.99746 43 64 106
-7.40552141976 -1.70817671227 -1.12051 22 48 83
-2.68510516877 -4.15559532529 -0.888434 19 34 66
-4.64503528504 -1.96359592612 -0.726512 33 42 67
-3.32843912709 -0.737173628224 -3.63641 34 59 96
-3.29586348736 -2.40810633593 -1.10548 35 62 106
-7.37966862177 -2.26214796183 -0.982087 27 22 14
-2.71655816737 -1.36349833566 -3.39101 14 36 79
-5.34595017986 0.944281474651 -2.73165 75 124 191
-3.10784670688 -0.879193724728 -3.64952 43 68 107
-6.19160666755 -3.52662472549 -0.541114 21 33 53
-3.74756434022 -0.862913741853 -2.08038 178 165 184
-2.3436653251 -4.31295376089 -1.01075 33 45 75
-5.02547895709 -3.57099729625 -0.813363 141 114 122
-7.34586434666 -1.29779808803 -0.833634 21 42 71
-4.61717452633 -1.19006624501 -0.982087 48 80 127
-4.58973700341 -1.20608268769 -1.01859 36 67 116
-2.18039476126 -3.30066600976 -2.39278 26 50 99
-1.69812740259 -3.97153019666 -2.0216 38 62 97
-7.40925397045 -2.27640755661 -1.00078 37 31 20
-3.08110385131 -5.01220063436 -0.637579 65 71 96
-3.40837348142 -0.421693990021 -3.04313 16 35 68
-5.5544205912 0.903503500255 -2.75787 90 134 196
-4.12937563738 0.56164728238 -2.69183 31 80 130
-5.64884383022 -0.496580053799 -0.852342 124 115 140
-5.62636923954 -0.455746411131 -0.865368 74 76 104
-2.77627530716 -2.48065467454 -2.29419 25 50 91
-7.19135639612 -0.23234271322 -1.35113 171 145 159
-2.61703507613 -1.4036291335 -3.06888 25 50 90
-4.88343742313 -0.236700939429 -1.45889 41 78 125
-5.59109029072 -1.11103104865 -0.586742 14 35 75
-7.14855856901 -2.16686340952 -1.40845 21 45 80
-4.9414306321 -4.94589139615 -1.66616 20 35 63
-5.33597996004 -3.58937290133 -1.25518 18 31 59
-6.59604858256 -0.130203298603 -2.63056 36 74 113
-3.7172644323 0.127040465764 -3.40535 47 80 123
-3.24524836013 -0.569695621438 -3.02876 30 48 83
-6.7158472607 0.0863751322644 -1.43524 40 33 42
-3.83262923557 -0.0395294266757 -2.67529 23 33 68
-6.52003052905 0.289648932116 -2.63375 48 78 112
-2.75837929985 -1.24314284363 -3.37209 43 67 112
-6.53929505835 -0.545504293532 -2.75761 47 89 131
-3.05157792882 -3.73173366739 -0.88923 9 15 32
-2.66045810409 -2.79548804411 -2.34882 30 57 103
-3.86891769842 -0.822245088627 -1.66934 164 154 164
-3.21212734049 -0.622605671541 -3.42184 47 78 123
-4.2216204374 -1.42895917312 -3.35597 28 44 80
-4.73159025131 -0.893859152121 -1.06214 26 55 99
-5.35396702368 -0.515516765763 -3.45595 23 41 76
-6.12388901353 -3.70835854082 -1.23694 44 31 45
-3.75180497701 -0.804882813895 -2.80295 53 54 75
-3.28202579238 -0.628359093689 -2.96784 28 48 89
-3.03891992334 -2.63251906014 -1.28139 37 72 112
-2.38195831549 -1.89776064459 -3.52829 18 40 79
-3.91433013648 0.477129086455 -3.23729 42 79 131
-4.92628913396 0.524430633217 -1.98114 45 94 160
-6.83064574925 -0.49505999346 -0.821533 158 164 180
-2.76596104636 -3.98443692509 -0.902752 25 45 78
-2.80172999048 -3.99134060067 -0.934667 18 34 66
-3.39488513495 -0.513130791198 -2.34767 171 158 176
-6.28172560658 -1.56868395303 -0.735672 24 24 42
-3.83439462675 -0.332694292057 -2.57094 154 139 155
-3.67014806714 -0.0545278768345 -2.84646 15 27 55
-7.48423678447 -1.26831856029 -1.51536 20 47 86
-4.54254615396 -1.27932423142 -0.922375 37 64 104
-3.78060851721 -1.12114155105 -1.56237 186 187 209
-4.12951034648 -1.76881217727 -0.905915 246 251 252
-2.89041379319 -1.08467992748 -3.48516 47 70 113
-3.89657961407 -0.900097397663 -1.58416 191 182 193
-3.62673864494 -0.772669327848 -2.41324 16 23 40
-3.79099025487 -1.11298422188 -1.28832 47 48 55
-6.33065994095 -0.810601854235 -0.614056 199 186 203
-6.29451860959 -1.53254295728 -0.690572 21 22 40
-4.43281591118 0.160320920628 -1.82482 45 89 149
-4.661252401 -0.228119212495 -3.75757 17 41 72
-5.41333448679 0.810236243181 -2.98181 124 183 230
-2.61085168324 -1.43434597395 -3.03502 10 29 66
-3.71766010063 -0.99399445018 -2.62021 151 138 157
-3.91783494255 -1.00657210598 -1.54404 171 165 177
-2.50704128569 -3.2287897934 -1.46734 23 39 79
-3.84080039276 -0.44215531828 -2.34816 130 120 133
-4.91555615007 -3.29643190329 -0.782414 160 140 146
-4.28473643315 -0.818250160635 -1.34508 124 142 168
-3.40180178807 -0.277911919698 -3.23942 42 68 113
-3.75345613704 -0.44706076347 -2.26683 14 19 33
-6.91872790187 -0.96833607197 -0.555293 28 58 104
-2.16755771962 -4.03459763325 -1.39232 43 69 109
-4.1145472393 0.532418252114 -2.64293 37 82 131
-3.87918138392 -1.24523625672 -3.62305 18 30 62
-4.31102588383 -5.09092374929 -2.72207 42 53 83
-2.28198830645 -1.92077138506 -3.46373 60 89 136
-6.03822797573 -0.566420438448 -3.10184 31 47 84
-7.40695660088 -1.53680601275 -1.08948 18 35 60
-7.44103305675 -1.50300534478 -1.08275 36 51 76
-3.71330810124 -0.820076386765 -2.07368 179 166 184
-6.34107020754 -0.33412354838 -2.92119 50 88 131
-4.50643293962 0.775859719993 -3.53784 84 122 177
-3.74525492418 -0.246815363753 -2.36316 13 22 41
-3.74525492418 -0.246815363753 -2.36316 14 22 41
-3.25588259932 -1.85637629957 -2.44392 31 53 97
-3.15206142632 -3.69088777249 -0.888994 10 22 43
-6.14800010759 -3.344048629 -1.75621 26 35 56
-4.47519126973 -0.411221690721 -3.68797 13 30 59
-1.983030408 -3.75851294757 -1.90455 40 65 106
-3.28263659377 -0.546102256152 -3.02908 32 50 81
-2.18757158514 -3.34155190951 -2.13229 32 62 110
-7.35050570177 -1.8284891072 -1.45356 19 43 75
-2.42258662433 -3.06675407427 -2.33329 38 69 120
-3.64824827613 -1.66315906688 -1.38031 206 211 230
-3.48549463552 -1.95565445061 -1.28754 235 240 248
-6.15140122941 -3.34449757213 -1.75785 27 36 56
-4.02206990826 0.183341117882 -3.76205 34 67 113
-3.27321704078 -4.17036983376 -0.626452 11 25 48
-6.63756063372 -0.212739051513 -2.62741 42 70 106
-2.67647792271 -3.30764533813 -1.36736 23 56 92
-3.92137394577 0.266838921086 -2.56254 77 96 139
-6.1885873119 -3.72947110316 -0.677944 29 30 40
-3.68182871953 -4.38189280861 -0.450233 20 28 49
-2.79641233461 -1.55043325696 -2.84854 11 23 60
-7.30133272728 -1.52740657519 -0.79327 27 36 57
-2.48944475305 -2.12610012161 -2.82658 18 41 80
-6.45166547331 -3.04787869608 -0.554402 27 40 65
-3.70430945117 -2.48456230612 -0.808284 195 192 205
-1.58233713353 -4.06041891354 -2.6214 65 72 96
-5.21831218615 0.377534700367 -1.76941 65 104 154
-4.9232671987 -1.27199431359 -0.809062 31 53 96
-3.74047914499 -0.215092273848 -2.38831 13 21 40
-6.83554816579 -0.587040334903 -0.864085 160 164 180
-2.86724457246 -1.09267471245 -3.45398 45 69 113
-3.73272058532 -1.68749772544 -1.2312 243 249 253
-5.33437515056 0.856972725967 -3.32146 62 71 85
-7.35880715478 -0.536348491988 -0.849159 72 67 56
-2.76551138542 -1.26992699475 -3.52656 26 45 84
-7.45068528272 -2.18200416439 -0.881055 12 8 7
-5.37299308341 -0.545350515965 -3.50051 23 42 75
-3.85650668391 0.537524589046 -2.98274 27 62 108
-3.92925400484 0.215142472763 -2.40175 36 67 114
-4.52614750184 0.781076705365 -3.50622 83 125 183
-6.19483970767 0.398567213815 -2.89615 59 113 161
-7.55893601959 -1.10968131633 -1.15234 39 79 122
-6.26749552519 -0.0956461779297 -1.21021 154 123 137
-2.75053396857 -1.26167528551 -3.3306 46 71 115
-6.95900114165 -2.23371903181 -1.4124 34 54 87
-3.76069681052 -0.270486338517 -2.32372 35 39 56
-6.6581635368 -0.184203340822 -2.59242 36 60 94
-4.55211885889 0.756655832877 -3.61067 84 109 150
-3.20396723627 -4.35574256362 -0.527702 15 26 53
-5.90539423719 -2.96694456556 -0.569209 16 24 46
-5.91754923027 -2.92008221018 -0.572326 9 17 38
-1.97424827006 -3.64610143725 -2.06046 33 56 102
-2.65176488078 -3.36059982763 -1.41936 20 37 71
-3.08971641338 -2.04269208786 -2.2812 33 57 105
-2.64241436473 -4.55558383181 -0.789527 23 33 57
-1.89325446687 -3.97707827623 -1.77696 4 24 59
-5.43815310274 -0.00140098532789 -1.2735 16 20 46
-5.90071284317 -0.0434630707617 -1.23284 39 33 52
-6.53607242206 -3.4767793639 -1.03233 83 94 101
-2.31442826075 -1.89226072575 -3.46373 17 41 83
-4.43845457231 -4.26550006399 -0.668263 141 131 145
-5.39515008934 -0.302675496261 -1.14725 14 22 51
-3.832623766 -1.11123870919 -1.55505 171 166 178
-3.85262649878 -1.06732354868 -1.56013 172 165 177
-3.01472268459 -3.30840102446 -3.27563 25 44 79
-4.76816742285 -3.46026501292 -2.50387 12 37 71
-4.38447292139 0.141287798495 -1.78542 38 80 133
-3.21445623574 -5.00484239646 -0.608185 25 30 53
-7.51299857655 -1.13098576954 -1.14113 33 71 111
-5.26837852271 -0.261485609204 -3.61373 23 62 102
-6.33654717897 -0.311324034951 -1.01227 167 137 152
-5.1560907167 0.996599601035 -3.03556 77 85 101
-4.5549584998 -0.281686809674 -3.75558 20 40 73
-5.36832020444 -0.558910154683 -3.54492 24 45 76
-6.33980514974 -3.69921377148 -0.624527 81 81 80
-1.99392780985 -3.69205138625 -2.10334 40 64 111
-3.43948726234 -1.76683528206 -2.61054 21 31 65
-4.8679873604 0.253346576697 -1.8167 64 110 172
-3.42402828274 -1.49748486435 -3.05345 15 22 44
-4.46919374404 1.11234478045 -3.30681 79 78 79
-6.13868550642 -0.926935698774 -3.29655 17 49 87
-5.99130886442 -1.38672591289 -0.577214 118 98 113
-3.38588723379 -4.59634339363 -0.47569 7 22 43
-4.59049005846 -2.10599121837 -0.773961 43 47 70
-4.60925290311 -2.07206322755 -0.803183 41 48 72
-2.71243046261 -2.7451986173 -2.73683 20 42 83
-3.79475180541 -3.4922878613 -0.599713 21 26 49
-4.63818627557 -2.92184811397 -2.85602 35 52 84
-2.6794011421 -2.78626016727 -2.69049 28 48 93
-3.14153838664 -1.25846590511 -2.83381 14 24 46
-3.14051630667 -2.65075084994 -1.24225 31 59 94
-5.49088914528 -3.31081953091 -1.10194 75 79 87
-6.69882077878 -2.98405400654 -0.788421 48 53 64
-5.39485358755 -3.69269140891 -1.31973 16 30 55
-4.41232972663 1.1436262386 -3.39349 55 55 59
-2.54828445614 -2.95326361353 -2.16951 34 65 113
-4.3324578044 -2.14926093369 -0.686123 208 200 214
-4.37306112309 -2.17589121208 -0.686582 189 176 190
-6.94294432632 -2.8969944636 -0.92144 119 118 109
-4.4281063408 -1.57453250262 -0.887344 226 228 239
-3.47059055758 -4.53411441856 -0.383011 91 80 81
-6.83273215067 -2.32969110857 -1.59004 20 37 65
-4.75716209237 -2.88490577218 -2.88293 49 63 90
-5.7867970709 -0.0557079238242 -1.22984 56 52 72
-2.49197052835 -4.06880727558 -1.0313 3 15 42
-5.78027074931 0.179516537333 -3.25757 62 128 180
-3.85178719815 0.0543593845308 -2.59634 16 23 47
-5.87891919749 -0.768342526332 -0.640573 144 145 163
-6.01515148149 -0.037144355658 -1.20121 133 107 122
-3.93324464706 -5.40908415859 -0.268235 45 41 53
-7.36899634913 -0.598627486991 -1.75461 34 62 96
-4.67019860941 0.360191200259 -2.12622 45 100 155
-4.89209676111 -1.40935585814 -0.727606 30 49 88
-6.03111471024 -0.249880100017 -3.12526 42 94 141
-6.20730402394 -3.82724340798 -0.859477 39 29 35
-7.32190343772 -0.32648495045 -1.47207 55 70 91
-5.06215741071 -4.58160601376 -1.59594 18 33 58
-5.53135367335 -3.11577158982 -0.838017 15 19 37
-6.200211956 0.0337860445539 -3.03802 78 130 179
-3.55742050149 -1.98481250154 -1.05569 119 128 146
-6.63672560314 -3.26896507683 -1.07202 9 35 66
-2.54617543082 -4.0388354113 -1.01655 8 22 52
-4.72922443197 -2.45192425638 -0.703051 130 124 135
-5.18417356668 -0.372027907799 -1.24184 29 51 100
-3.92469372612 -0.126937804303 -2.16181 183 172 189
-4.03162030963 -5.35248983101 -0.365618 43 28 34
-5.47408837302 -0.589320924392 -0.932093 17 30 67
-4.84082053829 -3.39151793017 -0.682901 176 152 161
-6.84943851009 -2.66100176581 -1.05944 23 43 72
-5.81676268644 -0.0400698297865 -1.27442 33 24 45
-3.44871164967 -0.085040933325 -3.30745 34 57 99
-5.30235513641 0.748300571788 -3.40672 95 126 154
-4.73171531382 -2.53142366237 -0.691087 152 137 144
-2.87694244149 -4.00488778169 -0.728494 37 64 100
-5.32980183955 0.815019479056 -3.44624 94 95 94
-2.173006228 -3.36883936582 -2.24478 33 60 108
-5.15317778568 -3.28593474922 -0.863652 79 68 81
-4.29006516052 0.731889200701 -2.64749 60 106 168
-4.84057031658 -2.60540959959 -0.837269 31 35 60
-7.25327505292 -1.61057814987 -0.81344 26 33 52
-4.65176948713 0.0870036751929 -1.35037 59 109 163
-3.80419422415 0.411314160975 -3.24605 33 64 115
-4.3085903965 0.729505981925 -2.64583 58 105 169
-4.35228020089 0.230036157619 -1.86561 36 86 136
-2.74301971186 -4.23292789086 -3.42912 40 59 93
-1.73408425733 -4.02064082888 -2.89398 89 89 109
-3.83881230106 -0.228451046934 -2.23583 119 116 128
-4.38045779954 0.582391540484 -3.26446 57 100 155
-6.22068351382 -1.47767811305 -0.679186 53 47 57
-5.19546081819 -3.63279392675 -2.10681 20 43 78
-5.68347936035 -3.1656169734 -1.73833 20 38 71
-2.19981768477 -1.86197498596 -3.06629 41 74 119
-3.91171000724 -0.0616394165435 -2.56669 102 97 117
-2.20779398949 -3.238205664 -2.43104 33 57 105
-4.2254576641 -5.18456326965 -0.558568 18 18 31
-4.21705502957 -5.21934240467 -0.525642 22 19 31
-6.98500635493 -2.04261172875 -1.57591 19 40 74
-5.76929792591 0.127100559362 -3.25864 56 119 172
-3.7111821461 -3.63212036983 -3.32869 137 150 174
-6.5634879306 -0.125770202193 -2.74139 69 81 103
-3.54744012759 -4.66334858002 -3.16525 22 50 84
-3.53183504606 -1.14850609275 -2.44068 16 23 45
-2.48944934194 -3.69380128134 -1.33716 25 48 91
-4.49510512794 -1.26395879455 -1.19776 40 82 127
-6.02881124156 -0.482286334081 -0.82212 166 143 161
-6.63298041911 -0.492489514666 -0.880241 132 129 144
-7.09872380397 -2.28019512923 -0.849521 83 84 84
-6.31688939239 -2.52074185987 -1.59168 16 29 60
-3.93751951631 -0.746730214717 -1.62458 174 165 176
-4.15027659468 0.164384998637 -1.97638 48 89 141
-3.14438061746 -1.99915591682 -2.55536 11 30 73
-3.72489120719 -0.300151785927 -2.37921 13 22 41
-4.85830972702 -3.84904840213 -2.38141 18 39 73
-5.75195944735 0.331061436888 -3.31003 90 159 208
-2.79089597778 -3.45988735327 -1.1337 14 22 51
-3.47598423696 -0.150465176404 -3.15504 27 46 86
-4.28655524774 -3.11892826643 -0.679757 164 146 154
-2.23003898358 -3.20290963252 -2.43237 35 59 107
-4.7267034161 0.727062839013 -2.44255 65 114 184
-4.13481967233 -0.340729364306 -1.66681 56 85 125
-5.54432026423 0.874585827541 -2.60438 94 131 188
-3.13925297671 -1.87859481349 -2.58302 17 35 77
-5.25881380646 -0.350120495693 -1.16058 23 39 79
-5.42004311304 0.890722930489 -2.4928 72 114 169
-2.10383868732 -3.47959739449 -2.16536 43 80 120
-5.48954719396 -3.53103657106 -1.40032 14 30 60
-5.46480330886 -0.328067445978 -0.974892 26 41 80
-2.68885838005 -3.57804212782 -0.987877 18 31 61
-3.98110580615 0.305676316163 -2.52324 40 72 116
-3.38085235467 -0.265156774056 -3.27808 36 63 106
-5.25386849016 0.509366626867 -1.86624 129 139 164
-3.74798362026 -1.21944887273 -1.57695 185 186 207
-2.08297337332 -4.19568572952 -1.36537 22 35 64
-4.37143968351 0.318921760086 -3.56725 52 91 151
-4.02297877301 0.318706463761 -2.46583 38 77 125
-5.10374944465 -1.57550740688 -0.690119 14 30 63
-4.97685803178 -1.00431900167 -3.70678 19 31 49
-2.90560323354 -1.06793074054 -3.40438 29 54 99
-2.52063368582 -4.01404530516 -3.40696 65 62 79
-6.49183038155 -2.72697792906 -1.40566 25 47 81
-2.66419738914 -2.80366130217 -2.04903 21 47 86
-7.43567166254 -2.21866406222 -0.927648 22 17 13
-7.43567166254 -2.21866406222 -0.927648 33 28 18
-5.92792556212 -0.0368271964679 -3.19233 50 107 160
-3.71749553684 -0.586933152929 -2.33193 19 26 45
-3.37966038669 -2.05823198822 -1.47337 20 39 84
-2.31640526189 -1.77183538943 -3.30228 31 59 106
-3.97825120758 -2.42718841553 -3.24601 26 54 89
-2.88736485528 -1.55998980648 -2.82012 20 31 57
-5.04187830152 -1.83560418157 -0.703755 14 28 56
-3.61438484936 -0.449243661219 -3.63676 29 50 87
-6.21217789043 0.0133471988651 -3.00686 83 137 188
-3.79017305065 -0.808488895544 -1.91597 182 171 190
-3.67080346198 -3.89396630616 -3.16541 29 51 86
-4.61469517208 0.680764759438 -2.46576 84 138 192
-6.66711702638 -1.0165381698 -0.523152 38 52 84
-6.18250995009 -3.73913555857 -1.10392 45 49 63
-4.01912770299 0.485615319607 -2.67424 51 91 146
-3.52426030225 -1.54887580111 -3.07249 67 74 86
-3.61586967799 0.215933793964 -3.09146 23 46 88
-2.0158811165 -3.54861756065 -2.78518 83 96 111
-4.43056689638 1.05457095386 -3.27714 64 71 82
-5.99336972465 -2.76690150163 -0.613374 11 18 36
-4.82021948979 -2.44012747982 -0.667673 28 32 53
-3.9211934383 -0.847533107914 -1.58712 198 189 199
-3.02110053877 -2.18956806621 -2.56881 35 56 98
-3.93664678344 -0.904973547711 -1.53493 168 160 171
-2.42552240411 -3.06367457803 -2.55475 44 69 118
-4.5123741377 1.03766031618 -3.30969 46 91 156
-3.84925095073 -4.46568719624 -0.566308 13 19 37
-3.88008258946 -0.502699921854 -2.38866 127 118 131
-5.56928132025 0.879603056077 -2.67587 85 129 194
-6.72868461041 -1.41486772569 -0.432462 40 55 89
-7.02869769113 -1.93134782966 -1.544 15 36 68
-3.76604970377 -0.774844940143 -1.95167 177 167 185
-4.94820630481 0.48549680189 -1.9177 45 97 164
-3.94133802806 -0.516348121081 -1.75718 189 186 205
-5.28703643938 0.789509429103 -3.45102 80 87 100
-4.95095964112 -4.02987325196 -0.745967 43 23 29
-3.45284906936 -4.32400800743 -0.503089 13 33 64
-2.79092493821 -1.21631597762 -3.05928 25 47 86
-6.58273002992 -2.91204953364 -1.33997 19 45 79
-7.49925080968 -1.45338161211 -1.1406 41 79 115
-7.14337514091 -0.137453135034 -1.5771 41 51 75
-3.2191191429 -0.574348159141 -3.39153 43 72 115
-3.19304660892 -2.11093881159 -2.86127 17 28 60
-2.7497252233 -1.32343616046 -3.49308 22 41 80
-5.2431038789 -1.93031741361 -3.04171 25 45 79
-3.9669089652 0.366042520344 -2.49452 28 62 113
-6.61414603297 -2.45865245957 -1.46484 13 31 62
-6.22022101257 -3.71223968053 -0.747431 24 29 42
-2.39920239563 -3.85148822176 -1.33111 24 45 82
-5.79487170674 -0.0978705513035 -1.13713 111 109 128
-7.31431031255 -1.31133777161 -0.736948 25 40 63
-5.27258740214 -1.95164663644 -2.91829 23 41 75
-6.60432350971 -0.957939904765 -0.582515 142 149 171
-2.49271742575 -2.27508667689 -2.75961 7 18 43
-2.42083635009 -2.29256922184 -2.793 8 15 38
-5.04072916509 -0.0119809752266 -3.88156 24 35 50
-3.58782117007 -0.31264647771 -2.76485 15 23 45
-2.00356372636 -4.2298693933 -1.47148 19 32 58
-7.12887075404 -0.704233114621 -0.719796 97 113 140
-2.2589472902 -3.20047040957 -2.39502 35 60 109
-6.01211186814 0.116023305259 -1.39943 53 24 36
-6.2303125542 -0.816573828022 -0.730277 157 155 175
-7.40138152497 -1.5484712015 -0.832444 78 83 88
-6.39254321116 0.119694183201 -2.73351 66 108 151
-3.38965948063 -1.63110615952 -2.8305 12 21 50
-3.09959651643 -2.21796308845 -2.86623 14 24 56
-7.14302094976 -0.186075559373 -1.38473 162 131 142
-5.28555706347 0.926760618704 -2.59062 50 114 176
-3.18799875279 -1.92786535717 -2.44112 40 62 106
-7.02122260046 -0.350831295258 -2.30942 24 51 85
-2.99524166882 -2.29593138905 -2.24169 29 55 101
-6.21540862594 -3.33350154752 -0.58961 18 32 55
-7.43561299994 -0.241404941883 -1.54894 95 92 89
-2.08112512376 -2.047327068 -3.143 19 32 62
-6.59240808306 -1.3195325958 -0.452845 23 38 72
-7.34959351979 -1.1601903638 -0.834041 24 52 89
-7.35984398904 -1.11890004556 -0.857832 24 59 97
-3.92754788746 -0.0802052871121 -3.74566 24 44 75
-2.6670317212 -3.2344114875 -1.3621 18 29 59
-2.44410356429 -2.09792189096 -2.8248 23 48 89
-5.47140826719 -0.601735811935 -3.55271 26 45 79
-3.92725467215 -0.377555572339 -2.65927 94 88 103
-3.95743994472 -3.50986666184 -0.641406 147 133 142
-2.38708502404 -1.84749400655 -3.0284 56 95 146
-2.04902503313 -3.41765556925 -2.23792 53 54 83
-5.81529008005 -0.561928415833 -0.784198 152 141 158
-4.78058386407 -0.484836427191 -1.378 27 60 101
-3.67015876445 -0.162762854016 -2.79934 11 17 38
-5.02218666523 -3.91847410863 -0.959667 59 47 62
-4.79977014349 0.605296455113 -2.16644 61 122 181
-3.89208826831 -1.19407741201 -1.41305 236 241 253
-3.3492086307 -0.393998430105 -3.01354 18 34 69
-3.60199769856 -4.71658151202 -3.27652 28 52 86
-5.02046445029 0.89497120953 -2.87646 102 153 219
-2.75441448811 -4.18453694156 -0.757815 10 20 52
-3.70858225753 -0.523778691868 -2.2913 15 21 39
-5.9874471707 -3.37887876702 -1.36646 14 30 58
-4.22381972422 0.925796601975 -3.0743 51 101 166
-6.43522696543 -1.24786225422 -2.75801 28 60 97
-3.98132381903 -0.154684382062 -1.86892 133 135 156
-4.36096008597 0.383797920079 -3.15326 49 88 140
-4.12456164691 -1.72593355298 -0.941963 248 254 254
-4.08747065694 -1.75753471891 -0.939999 248 254 254
-6.39917622522 -3.03007332173 -0.544083 16 26 46
-2.73178908488 -1.2932759864 -3.46844 25 45 85
-3.87805472001 -1.97421023173 -0.950821 242 249 253
-4.20831200549 0.99773831908 -3.32019 133 142 144
-2.98265245944 -2.80247109348 -1.37063 19 41 87
-5.05887365007 -3.96165942145 -1.0066 23 24 40
-3.54331836724 -1.84918307078 -1.41222 203 206 222
-5.78748831473 -3.4236832327 -0.517 23 29 48
-6.70115198611 -0.193535523132 -1.23659 106 95 103
-1.59991006982 -3.90059909528 -2.47544 25 45 79
-6.52940679101 -0.494146518376 -2.72335 74 97 136
-5.23718920718 -3.71597659074 -2.01425 26 47 81
-3.70635454612 -4.61795983708 -0.486177 16 25 48
-6.11535795638 -0.425234955891 -0.789214 164 139 155
-7.52510482994 -1.18829553074 -1.12336 27 64 104
-3.66566113808 -1.1363176626 -2.28192 183 172 192
-2.02685387172 -4.00451839147 -1.7042 22 50 90
-3.45868999963 -1.4957775746 -2.36124 28 44 81
-6.58125491536 -0.0671750842012 -2.63044 37 74 112
-3.40022605907 -0.153769247026 -3.15492 30 50 86
-3.85413573757 -0.0767119867239 -2.28241 75 76 93
-7.17541838562 -2.07493733731 -1.40062 21 43 75
-2.23471371141 -1.8971751457 -3.49606 72 105 149
-4.82274214097 -3.87598374922 -2.3993 25 45 81
-5.28055594022 0.222607686973 -1.66149 46 74 124
-5.43838733369 -3.54875986811 -1.3659 16 32 62
-4.933999124 1.00159785606 -3.13852 91 114 144
-6.15322122372 -2.59402191679 -1.96772 23 37 64
-2.85944915418 -1.59356818559 -2.84815 10 20 45
-3.44414311821 -2.73135232349 -0.892435 30 49 85
-3.86441818721 -0.0768711386538 -2.48532 150 136 153
-3.62598578545 -0.0412954743351 -3.43967 41 75 117
-7.26860895487 -1.46236584319 -0.741654 23 35 57
-3.44398287446 -0.215926515361 -3.07778 19 37 74
-4.76276463273 -3.03692793707 -0.63033 99 90 103
-5.61266889083 -0.683567372514 -0.7964 18 32 70
-6.72242730623 -0.503967776053 -0.934082 128 133 159
-2.61282210067 -2.33703212889 -3.60652 39 56 84
-3.86824392781 -4.00374287403 -0.54576 17 25 50
-6.62571198522 -0.0836223739359 -2.59295 34 68 105
-6.69660801097 -0.984665078825 -0.516293 37 53 85
-3.66150370845 -1.32059755726 -1.5935 186 187 207
-3.75298700083 -0.488384606602 -2.26888 24 27 42
-3.35690505065 -0.835038255972 -3.80621 27 46 83
-5.52762079484 -0.489244653905 -0.880357 16 28 57
-6.639542531 -2.71481836293 -0.625797 37 52 72
-7.35090680794 -0.479057440158 -1.83562 28 56 90
-5.62617835312 -0.100461872258 -3.47887 38 91 135
-2.89177403156 -1.60448177043 -2.78895 12 23 47
-4.58716027199 -0.925875033695 -3.53528 34 55 89
-3.43421878815 -0.262792587508 -2.95156 17 30 65
-4.18158448334 0.106555908145 -1.98985 45 82 129
-3.56330904063 -1.07545819277 -2.50552 22 29 49
-3.90751378028 -1.41384634631 -1.2992 216 215 226
-2.49365174111 -3.6625389663 -1.37746 26 49 92
-6.63409753443 -3.18095630522 -0.765655 73 72 73
-3.89586429482 -1.14503168307 -1.16497 45 48 59
-5.46388096508 0.935508476466 -2.62875 70 119 181
-3.20348889334 -0.940654958236 -2.80583 21 34 62
-2.73983290604 -2.70713659299 -2.66491 25 45 85
-5.8301015936 -2.94812101901 -2.34295 46 48 57
-6.85205752351 -1.15858201029 -2.53716 27 57 95
-5.22737189434 -4.30170989017 -1.46734 27 41 70
-7.18549704768 -0.676712161356 -0.734849 92 108 130
-6.42795081904 -2.4081788715 -1.86728 15 28 54
-4.89086399502 -1.37594473442 -0.861797 23 52 95
-2.90468220704 -1.24023753302 -2.92503 31 51 84
-4.53241913368 0.0460384212368 -1.69787 59 104 162
-7.26110818697 -0.426923596334 -1.70337 30 58 94
-3.34158477096 -0.394813085008 -3.08723 27 47 86
-5.71169184639 -0.10036769601 -1.17965 108 107 127
-3.78576443032 -1.34844537987 -1.46427 214 212 223
-4.3504184895 -0.828801481555 -1.34852 41 66 106
-6.17760902267 -0.375945862313 -2.97454 40 78 119
-4.9866032712 1.01967049 -3.15747 76 88 103
-2.03692807473 -3.42186076813 -2.56952 29 56 102
-5.86661738671 -0.0232755313232 -1.27866 35 24 44
-5.35018262945 0.904263422844 -2.75596 84 132 198
-3.33981111559 -2.39294720989 -1.19323 36 64 109
-4.16676796249 0.52309041369 -2.55702 43 89 139
-3.7414346934 -1.09481476132 -1.63579 213 213 235
-4.01433234309 -5.30821104249 -0.417588 32 37 61
-3.91974245528 -1.24149075554 -1.37535 212 217 234
-6.92269606177 -2.10681862687 -0.814294 10 16 32
-3.82105939934 -0.673524618921 -2.02317 148 140 156
-4.06427818823 -2.28223206158 -0.721558 199 200 212
-2.47348916373 -2.943750237 -2.73286 8 27 64
-4.89090382511 -0.623513073729 -1.51633 36 64 103
-3.60425388839 -3.40818230853 -3.46495 141 149 162
-3.53412211583 -0.560287339593 -3.83145 99 106 110
-6.01804212136 -0.230215473905 -3.15784 43 98 144
-3.47054075732 -2.61878821621 -0.826296 67 88 116
-3.43511547988 -2.58914566877 -0.84223 67 86 113
-2.80403218439 -3.15738343102 -3.10226 18 32 64
-2.34184142552 -3.15156511405 -2.55442 24 47 95
-3.41317913806 -3.45695707545 -3.2831 11 37 70
-6.23341291805 -0.771685052767 -3.04486 31 69 109
-7.07870454098 -0.885126677433 -0.675104 44 65 101
-6.17967190216 -3.78416991666 -1.09188 78 47 58
-5.98046248903 -3.4521532007 -0.418643 18 26 45
-6.0213791424 -3.43357316945 -0.437848 20 25 42
-4.02293098007 -1.02986988477 -1.38681 235 240 252
-3.85499180568 -3.07143924663 -0.612066 159 150 158
-2.73447573574 -2.67355757087 -2.33118 19 40 81
-2.35265623618 -1.93366818903 -2.93848 40 70 122
-2.42571963293 -1.95302643415 -3.59009 19 39 77
-3.00096481822 -2.22350609395 -2.78007 44 55 74
-2.40075691855 -3.07229689355 -2.65705 35 57 103
-5.30973570716 0.23743304368 -3.7775 26 32 42
-2.19659191648 -3.41431381248 -1.94329 18 47 87
-6.69149720849 -1.48043581273 -0.340621 12 21 40
-2.56290920253 -3.59249859982 -1.43803 28 49 90
-6.50214526174 -0.0184193429679 -2.66547 43 80 121
-4.60553017034 -2.95993208534 -2.8316 36 55 87
-4.47850288479 0.24290745005 -1.81947 59 104 163
-4.00082876617 -0.807513180934 -1.51976 186 187 207
-3.58154771847 0.0408902336867 -3.10656 20 42 81
-7.41371982049 -2.2083695622 -0.906847 9 7 6
-7.56797406694 -1.14799460123 -0.937845 115 118 116
-4.35373088665 0.977332802607 -3.20077 73 117 178
-3.62855100674 -1.13833508566 -2.0971 180 171 191
-5.66374084634 -2.82421291557 -0.924594 10 15 29
-2.85586710034 -2.46720447373 -2.43483 26 47 90
-1.49031678136 -4.17421230169 -2.50494 82 96 126
-5.77480751641 -0.0127853541981 -1.3279 42 24 46
-3.47518531896 -4.8502588567 -0.297189 75 62 62
-3.60980709008 -0.742338939618 -2.36222 13 21 40
-3.82115173111 0.0126737627991 -2.63984 8 16 39
-2.64640852969 -3.29156020203 -1.49304 16 32 65
-3.79427267109 -2.93979430652 -0.601268 187 172 184
-2.56711272553 -2.88271384477 -2.16602 34 64 113
-6.12328443536 -3.6664971231 -1.24446 23 27 49
-2.5303027754 -3.37226592624 -1.44955 31 49 90
-3.85958977701 -1.23938185974 -1.41421 232 236 251
-7.34134036645 -2.12184715162 -0.943166 5 7 7
-6.7537542017 -0.290812804213 -1.15503 126 108 118
-4.96142868277 0.353054396215 -1.8496 49 97 151
-3.17362610427 -0.577526749482 -3.38927 40 66 110
-5.43360449066 -3.57378427477 -1.33239 15 30 58
-3.93291511393 -0.117937560832 -2.56555 118 110 129
-3.35437034958 -0.31384034219 -3.12756 31 52 92
-3.67292434015 -0.579038089517 -2.28199 13 21 39
-2.7694850641 -1.20883881993 -3.2936 29 53 92
-1.5004840518 -4.18209127446 -2.67447 83 91 116
-7.41370978918 -0.904327231641 -1.42266 38 67 104
-2.41977677093 -3.61984492361 -1.52908 12 31 68
-3.42350760338 -0.266546974412 -3.12415 24 44 81
-1.87025011636 -3.65500160173 -2.37389 41 64 109
-4.32935537288 0.971927321241 -3.16601 66 114 179
-3.54996239058 -2.55037500552 -0.871094 179 180 198
-5.10252331873 0.207718359037 -1.61136 47 87 145
-6.62844541259 -0.0677725545432 -2.69443 66 75 95
-7.2589714104 -0.448147325645 -1.74101 28 58 93
-2.59659199247 -1.67716586272 -3.0041 29 47 87
-3.27897072012 -1.901301457 -3.09705 22 41 65
-2.11732501421 -1.98878118268 -3.22266 27 42 78
-4.55851102637 -2.37060841269 -0.622406 153 138 147
-3.67258194972 -2.96105653434 -0.651725 169 165 179
-2.61034676137 -1.47281516081 -3.15372 8 27 61
-4.01906021322 -0.529055757908 -1.64132 174 171 190
-5.84833618879 -0.0846891568685 -1.1393 115 113 132
-2.47593435138 -2.91466156124 -2.76144 9 24 56
-3.21671318655 -0.589807129807 -2.97519 29 46 84
-5.46171279041 -3.45016267156 -1.03736 81 85 94
-6.62844061834 -0.0677813303688 -2.69444 66 75 95
-3.66039053875 0.404640326594 -3.37356 103 118 124
-5.4613518953 -1.24505843822 -0.575811 27 39 68
-2.82243766127 -1.12943070997 -3.17185 21 46 91
-3.26845202152 -4.02932957465 -0.951359 6 10 21
-3.78018078901 0.166075302242 -2.68615 20 32 68
-5.34895550807 -0.451269080113 -3.43877 38 61 98
-4.02957071541 -4.91529720154 -0.596988 23 31 55
-5.21358472315 -1.45434255349 -0.649072 13 28 60
-4.64686770291 -0.386900408047 -1.44074 36 72 120
-6.84095739546 -2.41496330479 -0.718275 26 30 43
-3.57358042572 -1.21643109914 -2.46529 23 33 67
-6.46486072922 -1.00964783894 -2.76416 36 53 86
-5.84902572045 -1.26484088739 -0.590262 29 31 52
-2.57940700857 -2.87209853958 -2.61407 54 84 132
-6.94887664096 -0.618630029656 -0.676266 201 203 221
-3.5862548386 -1.00362882743 -2.51114 21 28 47
-3.0075235563 -2.32017212883 -2.73821 18 33 70
-2.67133013431 -1.35659702019 -3.32575 20 47 95
-3.09859579246 -0.952444810341 -2.9896 25 44 88
-3.72886431046 0.245056395735 -2.87116 26 50 94
-2.50479641092 -2.91460140558 -2.73232 14 37 74
-2.92801180609 -2.8251058588 -1.22783 31 51 90
-2.8903353324 -2.85256417139 -1.24279 24 40 76
-4.71460388234 0.574759021323 -2.21103 60 129 188
-5.14267508823 0.15398007188 -1.57116 51 85 141
-2.14607402271 -3.8330099529 -1.75526 25 47 91
-4.01045511477 -0.267809108398 -1.76125 160 161 179
-3.43620214527 -0.412887721322 -3.48278 43 76 115
-3.98990607004 0.26254752931 -2.48167 37 75 119
-2.63686992629 -1.51708425219 -3.0125 17 32 67
-5.16003827162 -4.49567288471 -1.3744 65 34 37
-6.05495765762 -3.64180588245 -1.27318 21 27 50
-7.23902626117 -0.193057692335 -1.43629 85 80 77
-7.41471272026 -1.09897653097 -1.70521 22 45 76
-4.65251435403 -3.40852625148 -2.78455 13 41 75
-1.91104016787 -3.5550973746 -2.51898 26 49 92
-2.81838471747 -1.60407541386 -2.7911 10 20 44
-4.90628088828 -1.63431729354 -0.779193 38 60 100
-5.49291708013 0.969886261773 -2.89502 96 108 124
-3.63985398183 -1.54565737127 -1.57646 209 210 231
-5.63601244424 -3.2696083836 -1.97105 21 35 61
-6.61863667219 -2.42352519723 -1.48169 16 35 66
-3.7954543916 -1.36324696717 -3.24924 15 29 58
-2.95084913239 -2.38032012639 -2.70099 28 46 84
-7.36026802834 -2.08240289076 -0.945218 5 6 10
-4.41931571331 0.974321073612 -3.23066 106 153 202
-3.99923621821 -2.72730576228 -0.632439 190 175 188
-5.42830784783 -3.38720314503 -1.07615 59 66 77
-3.74529482835 -1.12445943341 -1.60023 198 199 221
-5.76435416775 -0.0836486557145 -1.18218 108 105 125
-2.99146945892 -2.71687355709 -1.57482 26 50 97
-3.40752473373 -1.6876775418 -1.9995 30 52 95
-7.1407535268 -1.89038579122 -0.851625 28 34 54
-3.665490035 -0.260373831705 -2.82279 10 17 40
-4.63598940387 -4.33589029927 -0.723095 142 119 129
-4.27816943644 -3.33368370493 -0.61817 167 149 158
-6.31292369176 -2.41348897878 -1.55282 18 30 62
-3.85143718138 -2.44781680764 -0.775241 207 205 216
-3.7987539682 0.197987449063 -2.65629 13 29 69
-4.95502335843 -3.34766877783 -0.745627 147 127 134
-5.38446076259 -0.749420088499 -0.832176 26 44 85
-2.03698584403 -1.96980900769 -3.31143 113 115 104
-7.25417078529 -0.293197183991 -1.37089 104 105 126
-2.80124957748 -3.65410700566 -1.12301 14 24 54
-7.42361809575 -1.72886537385 -1.26648 49 55 65
-4.58514525398 -2.37087178269 -3.30271 33 22 21
-4.28449710495 0.948426625543 -3.03775 62 106 170
-6.89871200075 -1.10008876493 -2.57414 33 67 105
-2.14511962152 -3.49810406819 -2.06413 38 81 123
-4.02157899826 -2.34954609039 -0.725202 217 213 225
-2.77695729685 -1.81444381061 -3.66108 29 49 84
-4.36981870014 0.376235046616 -3.14579 48 88 140
-4.9032704499 0.362777176142 -1.92761 37 88 154
-4.44046537735 0.0610626249176 -1.77512 34 74 124
-7.11926283766 -0.446073608806 -1.11329 165 170 184
-3.0801188295 -2.01353776332 -3.60827 31 54 85
-3.57030317117 -1.57827261043 -1.57377 212 213 233
-3.01718112986 -4.02622367591 -0.773662 31 47 85
-5.75249028102 -3.17111776389 -0.600483 16 19 40
-4.78256516435 -3.02008152272 -0.747804 165 144 150
-4.08998450104 -0.240915249999 -1.72633 58 92 145
-7.48947538688 -1.18530815947 -1.57914 34 66 107
-2.40100376384 -3.09270334272 -2.34112 34 64 114
-6.30917324306 -1.6129294743 -0.752482 19 24 45
-3.81000358284 -1.02499190258 -1.62774 196 188 200
-7.31924891607 -1.6020314382 -0.781431 46 51 62
-2.79104782044 -1.35855320782 -2.98367 41 69 116
-3.63363810381 -0.803216626702 -2.40225 16 23 40
-7.00769194959 -2.17337555477 -1.43719 16 40 73
-2.52330922273 -4.44842349051 -0.765383 21 31 55
-2.71731154373 -2.58274679652 -1.32036 26 54 96
-4.69774860472 -1.74737822017 -0.753151 28 48 82
-5.59312951958 -3.03815076574 -1.23212 15 20 34
-5.6288917571 -3.0091904478 -1.21513 18 22 36
-3.86509957812 -1.37259273293 -1.36757 184 183 194
-4.09953705408 -0.266188926629 -1.69085 59 94 147
-3.60308303775 -1.99947036576 -1.10608 241 249 254
-2.17707760386 -3.32801348801 -2.14436 56 68 101
-3.38260734303 -0.337242739513 -3.30696 26 50 96
-4.63566703547 -0.438690536921 -1.57865 23 66 113
-4.53942955554 -2.15878316399 -0.70219 161 151 160
-3.21550767235 -3.27564222734 -3.27765 29 46 78
-5.75497876343 -0.312521926967 -1.02995 112 101 112
-6.21270670483 -2.62446789415 -1.92757 15 29 54
-2.1807014175 -3.33702386396 -2.46346 35 61 108
-3.72827073488 -0.978743473757 -2.87782 18 24 50
-4.03600369943 -0.340769359368 -1.75431 198 197 218
-4.55226192278 0.562726969804 -3.75558 78 107 145
-6.61300736395 -1.14749843603 -0.549321 23 42 80
-3.51209233917 -0.483597532315 -2.63128 170 154 171
-5.50110032124 -0.408677200301 -0.890486 22 40 78
-3.40719683952 -0.580910790685 -2.39555 166 153 170
-4.52652656819 -0.820563750046 -1.20551 45 78 118
-3.97151400775 -0.418143270131 -2.47343 151 138 154
-6.60894704186 -1.00037082922 -0.551453 82 92 119
-2.50655864332 -3.29078807286 -1.4632 24 42 83
-2.18193348749 -1.85883551962 -3.10957 39 71 117
-4.0861533769 -2.67249645263 -0.659605 187 172 184
-3.76759218512 0.137400277357 -2.68491 24 38 68
-5.68488251872 -3.02726099949 -1.00094 17 22 36
-4.36821034666 0.491974682001 -2.24873 64 114 178
-2.50993110178 -3.69677476651 -1.29265 28 52 94
-3.70480058044 -0.714879762818 -2.093 178 168 186
-3.40814137275 -0.241903180952 -3.23736 38 65 110
-5.23609203789 0.663508802292 -2.08412 63 105 157
-4.6890857839 -3.54161376089 -2.52625 21 45 79
-1.98858350588 -3.46530098754 -2.0996 34 63 108
-2.66131639255 -2.80351177398 -2.27 46 75 120
-3.28234227032 -2.53568815911 -3.70943 39 64 97
-6.72206030812 -2.53394322121 -0.628854 47 62 78
-2.21926997261 -3.35382085942 -2.08222 54 81 119
-3.82200683807 -1.26708612406 -1.43575 229 233 250
-4.63575150954 -4.02324273251 -0.71126 118 104 107
-5.60520808205 -1.32172168648 -0.52607 14 19 43
-7.17107601383 -2.30335818883 -0.803482 136 133 117
-6.01959014015 -0.201308973981 -3.1947 44 101 148
-7.229660067 -1.86405671966 -1.49341 18 41 74
-4.36356245866 -1.23275385013 -1.07581 211 209 222
-2.1654299066 -1.88195330103 -3.03467 35 66 117
-4.93879386847 -0.931324237671 -0.797698 32 52 89
-7.08597689318 -1.23912932614 -0.546923 22 36 61
-6.83394127364 -0.488610410604 -2.75481 27 51 82
-2.55756009384 -3.91307869439 -1.08528 49 81 121
-6.65777589542 -0.618765479341 -2.72493 44 62 96
-3.90303662762 -5.51235364906 -0.35797 63 50 57
-3.93106577327 -5.4996344905 -0.319706 65 48 50
-4.79860762405 -0.93721671376 -1.15 45 80 130
-7.34399100495 -2.12033251782 -0.965955 5 8 8
-3.77010764328 -0.160857671523 -2.31582 34 38 56
-5.37501859156 -0.870369599892 -0.756097 37 59 98
-4.41326160806 0.278252653548 -1.91778 59 107 169
-6.28898688589 -3.11121260108 -1.43366 12 35 69
-6.26622686139 -3.08216492157 -1.42111 12 27 56
-4.27929305797 0.954961569691 -3.10986 63 110 176
-3.80317389166 -1.32158356579 -1.42396 228 233 250
-2.46932013451 -3.73023038245 -1.42286 21 38 70
-2.79134387684 -4.14009085796 -0.759006 14 24 60
-4.27942799664 0.846328265904 -2.72885 64 112 176
-4.74650435817 -4.08812294615 -2.27246 28 48 84
-5.05034688551 -1.23002133657 -0.678341 26 40 72
-3.61967725469 0.351390622363 -3.3867 107 120 124
-3.25069014545 -2.93173997017 -0.923616 21 48 83
-5.03100118533 -4.46509607547 -1.96492 17 35 69
-6.45469014533 -3.67080254251 -0.989958 106 113 119
-3.83601826151 -1.7693618681 -1.10238 246 252 255
-4.12925734273 -0.320666610521 -1.61813 60 97 149
-7.40316281601 -2.00054718118 -1.08847 29 41 62
-3.71668298838 0.4244583617 -3.23828 33 62 113
-6.79292498774 -2.02210230468 -1.57155 14 27 58
-3.83456133226 0.579744163188 -3.13792 73 103 129
-4.36150248876 0.845133383922 -2.76359 47 98 158
-6.2014102126 -0.743912264935 -0.715079 178 169 187
-7.13016831092 -0.220657054062 -1.93103 57 76 99
-7.38118606639 -2.03326636479 -0.952573 9 8 14
-3.65990176426 -1.13371939892 -2.06384 155 147 169
-3.91530770086 -1.14635995173 -1.41452 238 244 254
-5.15014825285 -1.25112171515 -0.635148 28 40 68
-2.4636046152 -2.2626736854 -2.79527 6 16 43
-5.15550327669 -0.405944637773 -1.1467 29 49 92
-2.48729287638 -2.97062845154 -2.73538 7 22 61
-4.75679102108 -0.837091721293 -1.25988 35 71 121
-7.36524996116 -2.07954101282 -0.94792 7 7 11
-5.4094499399 -2.02588511691 -0.801028 16 21 41
-6.72440275562 -1.42604293573 -2.60245 23 55 91
-4.60645082091 -2.26679431914 -3.29283 20 39 62
-2.38627353025 -1.94033877431 -3.55768 20 41 81
-6.53783474009 -0.535453827344 -2.79364 51 96 140
-5.62097664669 0.00494568131523 -3.45512 43 99 147
-4.27548164688 -4.02171287878 -0.618541 134 122 133
-4.80773293879 -3.40890770118 -0.683239 153 136 143
-7.20065970462 -0.34838905246 -1.17064 161 163 175
-4.2990146914 0.790196382909 -3.39518 62 107 166
-4.99447311255 -1.36149920693 -0.760547 21 50 90
-2.72617872362 -1.50023941914 -2.91471 11 27 65
-3.51685097025 -4.48510298806 -0.394162 97 84 86
-2.65791339149 -3.60485918552 -1.28926 29 53 93
-2.65767022905 -3.61302186106 -1.2408 32 58 97
-5.82020963997 0.0100421988233 -1.33413 43 23 42
-4.91820467676 0.619972521684 -2.12839 66 128 187
-6.93993256281 0.12549143292 -2.17265 44 58 80
-6.53467129662 -0.278638519729 -2.77132 62 80 114
-2.19047040745 -1.84988344731 -3.03418 47 84 137
-2.67558590914 -2.77217702495 -2.43168 34 56 102
-3.86028904515 -0.184132139422 -2.25815 118 112 123
-3.95282634578 -3.78696665608 -0.63307 20 27 50
-2.7850389568 -2.04327533359 -2.75228 11 19 40
-5.7315105383 -0.053034926697 -1.23757 120 99 118
-3.82018603546 -0.19746831255 -2.29228 53 55 71
-7.26793096377 -2.1556851731 -1.29046 64 56 51
-4.04710131215 -5.26741747968 -0.405762 25 30 52
-4.27873583927 -0.755604387648 -1.3807 85 108 151
-6.47736180214 -1.32508634654 -0.485109 17 28 60
-3.12380734669 -0.726705437618 -3.15587 27 51 92
-2.98661856608 -2.4685702619 -3.16241 16 35 58
-5.62246812777 0.00350415982899 -3.45673 43 99 147
-4.14547787912 -3.77764794896 -0.666336 159 141 152
-4.94599311366 0.525665171099 -1.95185 59 105 159
-5.79755590717 -3.04294601938 -1.08302 15 20 34
-2.03335232007 -3.43946104025 -2.61443 20 42 86
-4.71481317089 -0.556211876887 -1.32105 31 66 112
-4.26127253952 -0.298026526228 -1.60099 39 85 137
-6.58479538467 -1.62089487151 -0.47884 11 24 51
-6.84743209459 -2.46777216646 -0.728265 29 33 44
-6.81582491505 -2.44782727485 -0.760202 19 25 41
-3.71409906083 0.45664769873 -3.1355 42 73 123
-4.50564444807 -2.48031217893 -0.658888 168 146 157
-4.5432493622 -2.45486210192 -0.677731 181 156 169
-3.77467661576 -1.35893808897 -1.42397 231 236 252
-6.74232610701 0.0520368985025 -1.41137 83 73 80
-5.75149263142 -0.671825624392 -3.4815 63 59 57
-4.03476884035 0.310043507455 -3.25919 44 79 133
-6.99481726356 -2.48603849799 -1.01368 21 34 59
-5.97855008327 -0.432243768526 -0.82746 155 133 149
-3.63391985348 -2.66597250743 -0.811425 206 204 217
-3.74776774665 -0.790997452142 -1.98659 178 165 182
-4.62796061348 -0.832209459796 -1.17485 37 65 103
-4.92962572786 -2.63491683873 -0.633579 25 30 51
-2.24173714512 -3.02485048528 -2.29607 68 41 48
-3.55279339038 -4.18736657303 -0.550739 16 26 50
-5.62232617104 0.00366147571604 -3.4567 43 99 147
-4.66584892768 0.0472808674659 -1.39951 57 110 165
-3.54715040068 0.131652010491 -3.02705 24 44 84
-4.27625752058 -2.21271268293 -0.52885 134 130 130
-7.03260563897 -2.62691038583 -0.920918 126 127 120
-4.54970990385 -0.142991812501 -3.80891 24 46 80
-6.93787836894 -2.71499705813 -1.03254 18 41 72
-2.66657783456 -3.80947122213 -1.02963 28 48 90
-6.28062248504 -0.266642510712 -0.94638 111 99 110
-2.40510711878 -3.16174214976 -2.10583 41 78 128
-6.85713101189 -1.31365842796 -0.413747 20 36 65
-7.30470641062 -2.08544800767 -0.769772 118 117 101
-4.03550855177 -0.0602973022415 -1.87977 50 86 139
-2.46394881249 -2.00944966673 -2.81431 35 82 131
-3.977676646 -4.83841629585 -0.61525 24 37 64
-3.48562627793 -2.67168738018 -0.862988 24 38 81
-4.8189051252 0.514964442655 -2.10784 45 99 166
-6.24795761984 -1.61652077955 -0.749483 62 53 73
-4.73516616802 -2.1863681821 -0.563999 31 36 60
-1.88443298447 -3.68056002798 -2.44864 33 51 95
-1.87706661156 -3.66838837853 -2.17461 39 64 107
-2.3993250733 -3.07241487313 -2.17281 40 71 121
-6.49415610655 0.159478682596 -2.66642 31 61 100
-6.49415610655 0.159478682596 -2.66642 31 61 100
-3.78625408159 -1.04531236398 -1.66937 220 220 239
-3.80220310793 -0.998805481061 -1.67101 215 214 234
-2.73512233264 -2.47004850781 -2.27843 33 56 98
-4.93326627073 -0.767692828207 -1.17597 34 61 99
-3.84198393662 -0.130660319726 -2.28794 63 64 80
-3.80708047316 -0.0890077010964 -2.30199 26 33 52
-7.10577212219 -2.12441393874 -1.42271 25 53 88
-5.63804647019 -0.270633756825 -1.17163 159 130 144
-7.33299467825 -2.15985937451 -0.968458 3 5 9
-3.90936889613 0.229845851693 -2.56247 137 153 189
-3.3025745683 -2.98673732252 -0.919146 15 28 67
-3.28423461344 -2.94751293016 -0.895785 15 28 66
-7.10712256467 0.02583681296 -1.89539 144 146 139
-4.55213914634 0.733957425699 -3.57683 85 124 179
-2.11536728854 -3.6881442752 -1.73664 28 50 95
