ply
format ascii 1.0
element vertex 995
property float x
property float y
property float z
property uchar red
property uchar green
property uchar blue
end_header
-5.44940966824 -1.08313 2.18447499816 149 125 133
-6.80631991523 -2.402 1.37976031413 44 57 85
-4.52423258174 -0.203631 1.71916661496 160 149 161
-4.40131214743 -1.08654 1.64443724103 12 26 52
-4.1888047389 -0.252757 0.402936411238 26 51 94
-4.17882315788 -0.278148 0.40890117783 27 52 94
-4.1826200914 -0.101371 0.392356121291 33 61 104
-6.62866949384 -1.49217 1.16388301986 22 44 79
-5.34104916693 1.42153 -1.05795701367 21 38 67
-5.2628086371 -1.23084 2.18835007532 151 130 139
-4.57603953338 2.48865 0.711158408412 40 79 127
-5.01028634063 -2.67833 2.13100887441 12 21 43
-6.88570248332 1.49871 1.80972331345 17 32 63
-4.14936593437 1.84329 -0.913199551646 15 26 57
-6.73904879459 2.00543 2.72561261117 22 38 64
-6.80875679338 2.97528 1.72989067789 38 64 98
-6.81805583562 2.96141 1.75229107551 38 67 103
-4.06047380621 -2.4626 0.640139020447 46 70 115
-4.16250649032 0.609933 0.649228848438 218 219 233
-4.15959579323 0.620883 0.623686565015 219 219 234
-4.99677587598 0.286389 -1.73829574632 28 44 81
-4.99677587598 0.286389 -1.73829574632 28 44 81
-5.59920161619 3.51248 -0.474029188216 64 63 59
-4.20923451573 -0.752357 1.34504555591 25 42 75
-4.22626751029 -0.736568 1.3605894525 26 43 76
-4.285629556 -2.03205 1.43631529714 19 34 66
-4.30526910546 -2.01302 1.44208193585 18 34 67
-6.65440528044 -1.44329 1.64907770336 22 40 71
-5.20986262826 2.3928 2.00576592226 131 127 143
-5.20617486429 2.39427 1.97810013982 129 125 141
-5.09932023355 -0.879752 2.05584685457 149 132 138
-5.08563379211 -0.870514 2.07839672201 147 131 137
-4.34664917364 -0.377464 -0.276880363579 29 55 103
-5.29474158237 -0.799822 2.10716166797 163 143 151
-5.31117142445 -0.809123 2.1277727041 165 145 153
-4.51281966924 -0.851739 1.76404485205 157 144 159
-4.67300443463 -0.172608 1.8306342192 174 162 171
-4.37013586876 -0.101654 1.49021049351 199 198 211
-4.14187859366 1.90788 -0.896573904917 14 27 62
-6.75912064575 -2.4491 1.49765402499 83 91 118
-4.09610800117 1.79737 -0.199766065292 168 157 173
-5.06230046868 0.557726 -1.03224917013 22 38 70
-5.08582804201 0.561131 -1.01753862313 21 35 67
-4.82117118316 0.0357548 1.89982420298 146 135 142
-3.96232880406 -2.78121 0.175062299191 31 47 81
-3.97533620267 -2.78655 0.19922649753 33 47 78
-6.82245679413 -2.38083 1.35355928287 25 39 68
-4.71394849407 -2.6081 1.97094424027 10 19 40
-4.71500887757 -2.61508 1.99799625334 9 19 38
-5.59095703102 2.46187 -1.18939511725 38 70 112
-5.2160652933 -1.01382 2.11288714379 170 149 157
-4.204866693 0.922612 -1.1553779268 20 40 78
-4.8367107675 0.0851097 1.90099796558 146 134 142
-4.82614174958 0.0730241 1.9238903335 164 149 156
-4.96079054366 0.297823 -1.55812157292 26 46 79
-6.1846148908 3.31873 0.39753789584 43 73 109
-6.48623764555 1.1259 2.90616756472 57 67 77
-5.48890766906 2.6546 2.02707254319 118 114 130
-4.15026290227 -0.0623034 0.423426858518 32 57 99
-6.88769338911 1.23713 1.62085731256 21 39 71
-6.49897162377 -1.03667 0.876707223357 17 41 76
-6.65917626603 -1.48154 1.64660196175 20 36 66
-4.06210281701 -2.6443 -0.218867349276 31 49 90
-5.47184019541 2.5805 -1.2810989142 66 101 153
-5.51531701486 2.87307 1.82646499603 96 87 98
-5.51474468558 2.85771 1.84983101493 105 95 104
-6.14236014883 2.34194 2.8775518479 33 58 95
-4.29767976419 -0.7099 1.45138530664 180 183 201
-4.73205294536 1.85528 1.41947559822 21 40 81
-5.87890437584 2.56033 -0.740936672451 45 79 118
-5.29727386163 0.785833 2.08500539289 16 21 39
-5.31236486767 0.766641 2.07135655023 17 21 40
-5.48877463027 -1.40942 2.23902777781 141 122 129
-7.01776778155 2.5311 2.01580703092 32 58 96
-4.0906552764 -2.77956 0.821842457281 27 37 62
-4.21489463848 0.902705 -1.18833476538 10 31 70
-4.25803706972 -1.2886 -0.190601194368 31 59 107
-4.67854426672 -0.568998 1.82967127503 157 144 151
-4.57985569232 -2.60915 1.83260681315 6 12 32
-5.06527581858 2.00984 2.02471957017 75 84 112
-4.54567793998 -0.169591 1.7285109807 163 151 162
-4.12382486501 -0.0416531 0.419467037068 30 54 96
-4.01993670007 -2.59276 -0.262869492208 17 41 77
-4.02534339264 -2.5817 -0.287992932964 22 44 80
-4.64924832444 2.31334 1.35579082096 14 23 52
-4.47926654624 1.02495 1.2391367191 45 72 112
-4.46340054359 1.00945 1.22208240704 69 91 126
-5.08702269573 0.250404 -1.39246317928 22 42 74
-4.18922276232 0.0999672 1.04335525673 237 240 248
-4.19157884615 0.0761298 1.05781494099 236 239 247
-4.86682869678 0.160639 -1.6145239118 19 37 74
-4.32631120696 1.25972 -1.5334920928 34 61 104
-4.32631120696 1.25972 -1.5334920928 31 57 101
-4.32631120696 1.25972 -1.5334920928 34 61 104
-4.32631120696 1.25972 -1.5334920928 33 59 103
-4.32631120696 1.25972 -1.5334920928 33 59 103
-4.32631120696 1.25972 -1.5334920928 33 59 103
-4.63988047205 0.481963 1.6862301721 190 188 202
-4.19394160793 -0.12277 0.40479691562 36 62 106
-5.58411064482 3.51963 -0.438687780731 68 69 66
-5.51246160704 -1.36798 2.23842856535 140 120 126
-4.60979861446 0.549837 1.64451214765 197 198 214
-4.89467646195 0.437215 -0.721660990588 29 45 68
-4.58588535063 2.06486 0.939889407585 43 82 130
-5.72673641257 0.0864287 -0.836384339017 47 63 91
-4.20699838409 0.968245 -1.23478699425 14 36 77
-6.02049532663 0.514867 -0.20207874799 30 47 83
-5.79589465269 -2.14101 -0.717892665372 40 61 97
-6.0560881486 0.333495 2.73740662907 14 21 39
-6.06629795922 0.309826 2.74833647701 11 18 37
-6.0603038397 0.515648 -0.177539498061 30 48 83
-5.54868935942 1.8029 -1.32227629137 30 50 85
-4.09351137359 -1.60491 0.437410577348 25 44 77
-4.89919750283 0.471536 -0.708035489152 21 37 64
-4.62810933286 -0.942513 1.85065642841 173 159 172
-4.76678355971 1.4878 -0.443960763803 143 127 145
-4.05833404337 -2.3483 0.895606884991 9 29 66
-5.33172533422 1.35875 -1.04485292868 20 37 68
-5.14342540082 -2.84195 2.29528773762 30 38 59
-6.9944016237 0.931182 2.55542311691 26 47 78
-4.58257164878 2.41422 0.651644535506 46 87 140
-6.64631954423 -1.52498 1.17433432703 16 37 72
-5.63434229832 2.17964 -1.47718569767 27 32 35
-5.63155169111 2.15255 -1.48375817144 25 29 29
-6.23007542398 -1.15767 0.292630319742 22 46 81
-6.043763579 2.07806 2.79438279149 23 36 65
-4.20223293169 2.40636 -0.126623087344 56 105 168
-4.17781602349 2.4008 -0.114050013181 57 105 168
-4.86938821109 -0.639222 1.96341192339 143 128 135
-4.26355823969 -1.32756 -0.212596857172 28 57 106
-4.86985546458 -1.0212 1.92668035175 148 133 138
-4.8430446913 -1.01815 1.93424913316 148 134 139
-4.94824654123 3.15267 -1.08462072762 99 148 212
-5.98774098005 0.696562 -0.467094577102 34 50 82
-6.8909151114 -0.253002 2.52146155228 32 47 74
-5.17158838743 2.74417 -1.3564062273 82 137 190
-5.99136028738 0.44063 -0.228843274662 34 53 87
-5.53249038968 1.82363 -1.32808338009 26 40 71
-4.36132008616 -0.0747468 1.53534070735 203 200 211
-5.71343171633 2.53907 -1.10425498888 52 82 128
-5.76790608097 -1.07043 -0.608465281447 13 40 73
-3.96354953087 -2.86785 -0.0443070920787 72 82 111
-6.66877535572 -2.52211 1.81320970339 89 92 117
-6.66855259879 -2.52417 1.78525017408 97 99 123
-6.14786698785 3.27006 0.144629630793 37 69 110
-4.77789473073 2.90788 -1.32387002178 74 121 180
-5.91467424711 -0.685331 2.14816470661 132 107 118
-5.88998701354 -0.679515 2.13620265232 129 106 112
-6.1670359926 2.02509 2.91623337049 15 28 57
-4.15591377647 1.89063 -0.930817036252 18 31 67
-6.33527327257 0.480007 2.89612158591 31 44 62
-4.72112927124 3.30625 -0.484706596038 80 102 143
-5.79968556543 0.054198 -0.800964666556 64 78 98
-3.98757097449 -2.63871 -0.213844994174 39 62 100
-3.95867435984 -2.72986 -0.141343297216 20 36 68
-5.33245225338 2.59718 -1.29752601726 68 100 149
-6.12321827429 -0.966862 -0.597234725959 22 46 81
-4.89233220187 2.71495 -1.44323856704 80 122 180
-5.56035570197 -1.3692 2.24879300586 143 124 130
-6.9207266191 1.04588 1.98673396966 16 32 62
-4.09740014637 -2.3388 1.0303854148 7 23 56
-4.61987893031 -0.713772 1.81774799743 161 146 157
-4.60730474467 -0.737678 1.82532975049 160 147 158
-4.06321034314 1.84898 0.057563595059 46 77 121
-4.08625562665 1.84167 0.0433296037694 46 76 118
-4.89419638874 -0.604902 1.96347194502 143 127 135
-3.97440758533 -2.64582 -0.140941158295 40 63 100
-5.53746009325 -1.32824 2.23793164654 138 118 124
-4.45840471527 0.540176 1.42604369809 192 191 203
-4.47544742687 0.532569 1.44699296484 183 181 193
-6.00118950461 0.486069 -0.233694809349 31 49 84
-4.77926247947 1.42343 -0.424460931456 139 125 144
-6.78976219424 -2.42397 1.40756602354 66 77 104
-5.03489708571 2.34497 1.6660817006 128 114 128
-4.96560574123 -2.91219 2.13103164101 42 49 72
-4.23821647204 1.66837 -1.379119 29 51 93
-6.64036243975 -1.44058 1.61929988233 21 39 71
-4.04163561997 -2.39315 -0.464032313015 25 51 92
-5.47211592691 2.19264 -1.45639616139 28 41 77
-5.46170163508 2.16805 -1.44776207628 29 44 80
-4.20997064632 1.69459 -1.20330849909 23 45 84
-6.89847859311 1.21895 1.5844284919 20 39 72
-5.67767587172 1.80634 2.40135447573 114 95 108
-5.69520903565 1.8152 2.42140597553 93 78 91
-5.58309864765 3.52137 -0.436209583455 69 69 66
-7.01176900514 1.4868 1.69138631089 21 40 73
-6.57849859837 0.120511 1.61093701621 16 33 63
-6.66600808976 -1.51382 1.12098230012 17 38 74
-5.96370352654 -0.78155 2.24113588932 62 52 63
-5.06289442853 -1.52929 2.10959169962 14 30 50
-5.55211329793 -2.14455 2.43387574116 13 27 50
-3.94966957517 -2.86219 0.0699563392088 63 73 102
-4.54474717485 2.85661 -1.25669331385 63 111 171
-6.9904750108 1.37989 2.60432732646 19 31 53
-6.07145964866 2.97021 2.37282496554 227 225 239
-6.09701073706 2.98181 2.37402809373 230 228 242
-5.11788254831 0.879029 -0.963996368546 17 34 64
-5.17379450019 3.0786 -1.10993634949 118 164 219
-6.23772114402 3.32627 0.61507924448 32 61 95
-4.11050952232 -1.55364 0.44154619577 24 48 82
-4.19473497396 1.72378 -1.3593899624 26 47 87
-6.64610298549 -1.56074 1.10756702064 14 35 70
-6.20717934353 2.02542 2.93765670826 16 28 56
-4.75904797043 1.44474 -0.443150172327 137 123 142
-5.2403996301 -2.94174 2.36035958907 66 66 86
-5.21263743111 -2.93849 2.36320387166 55 58 78
-6.67915655771 -2.36744 1.68908122662 22 39 66
-5.1279466883 0.693047 -1.19162736641 25 41 75
-4.58756333035 0.561181 -1.61644617961 31 59 98
-5.04405845269 -2.15017 2.20977435588 10 31 63
-4.20648054025 1.71134 -0.930768040335 10 22 48
-4.42275109033 0.604506 1.42977524632 216 218 228
-6.63648740467 -1.50538 1.12746263587 21 42 78
-4.25513189059 1.70499 -1.37295469833 32 54 95
-6.82546446208 1.90671 2.69299673738 20 38 59
-4.58416982576 2.01466 0.941778157015 43 79 127
-4.9149158326 2.72868 -1.40072727415 77 123 182
-6.74247703744 -2.46895 1.52499120119 94 100 126
-4.66014035253 2.43342 1.01901557451 28 55 96
-4.68308396234 2.44807 1.02603457507 27 51 91
-4.77791367098 2.42956 -1.17205629368 47 86 140
-5.71961314863 2.44705 -1.11807302039 45 67 107
-6.89525509931 1.25636 1.60034104002 22 42 73
-5.11691219118 2.02796 -1.58233729458 33 57 96
-4.26437650184 1.74822 -1.42116429035 31 54 95
-4.25985575283 1.72323 -1.41080328517 32 55 95
-5.1642010727 1.76497 2.25517229567 27 34 59
-5.3549379917 -1.58413 2.2084760056 57 59 79
-5.52041563858 -1.62174 2.2570334996 132 123 140
-6.30221067726 2.10951 -0.348980557453 23 53 90
-6.75335777565 -2.48146 1.49381066342 102 107 133
-4.26165143645 0.453936 -1.47186774308 20 34 52
-4.27960241384 0.457396 -1.45049521608 60 89 120
-5.89846985079 2.53723 -0.869779036177 40 72 111
-4.68974369912 2.31531 -1.5133471867 51 92 144
-3.99899503314 -2.53183 0.225586008925 20 42 80
-4.00746928865 -2.5061 0.218000140908 32 56 95
-4.47811987105 0.425306 1.56725086714 220 219 231
-4.78420450193 1.67484 1.4662663959 24 46 86
-6.3674427867 -2.27506 2.11929312217 9 17 29
-5.71966786757 0.0356797 -0.818230880075 46 62 90
-4.50340449712 2.98148 -1.12449006654 57 104 166
-7.02355082725 1.93017 1.77619714197 21 46 81
-4.9701161628 2.40279 1.62655649766 99 93 108
-4.99246528494 2.38774 1.63466370059 101 96 110
-5.58367362637 -1.32738 2.24553201179 141 121 127
-5.53297026131 -1.40727 2.25032188807 143 124 131
-4.36500956998 -0.125727 1.51419492798 200 198 210
-4.77648438474 1.42401 -0.464846749383 142 126 142
-7.01886274663 1.9625 1.80813990797 23 45 80
-4.00670202907 -2.75118 0.39315420941 14 26 59
-5.0050431853 3.33749 -0.0119697856427 147 153 180
-5.40467177127 -1.57348 2.20379227996 124 115 132
-4.14494428632 2.33469 -0.912823348862 37 74 128
-3.95590163984 -2.88626 0.03727315898 78 88 118
-6.80736675904 -2.41665 1.34593088585 61 71 99
-4.38935864567 0.459486 -1.57526986885 46 72 115
-4.47876030247 0.456644 1.52686496801 208 205 218
-6.90805166874 1.27302 1.56607076265 24 44 79
-4.2381047425 1.66835 -1.37912306343 29 51 93
-4.48238104023 0.479729 1.5640396745 213 210 223
-4.42632996649 0.56476 1.44429103684 193 194 205
-4.7835327463 -0.853426 2.0056400842 124 111 113
-4.59104477113 2.88193 -1.2477867444 68 115 175
-5.55147658271 -1.99989 2.59293854451 10 23 43
-3.96062971358 -2.66476 -0.099868627937 46 68 105
-6.77901774222 -2.45462 1.4011607405 100 106 133
-6.76040907327 -2.46465 1.46296521477 98 104 130
-6.64019171749 -1.44064 1.61919522139 20 38 68
-6.89139642128 1.4804 1.81890742857 17 35 69
-6.74592002246 -2.39417 1.09735127151 28 44 76
-6.73487370813 -2.39063 1.07168316212 26 43 76
-6.22967371492 2.32514 -0.463164768248 29 63 104
-3.99949901207 -2.77218 0.358156578831 21 34 68
-5.51016898004 1.81472 -1.30286803612 25 38 70
-5.27706670961 2.35506 1.96513994739 145 139 156
-5.27020824636 2.35807 1.99229508766 157 147 164
-6.2126622811 3.24845 0.222507794437 63 72 91
-4.77670492049 1.38221 -0.465250437362 145 127 144
-6.60518896046 2.70911 2.48818899757 43 86 129
-4.23647381841 2.07655 -1.36257978423 38 69 118
-4.42726721987 0.489602 1.4509187246 177 176 188
-4.14167010176 2.40729 -0.882842953343 27 63 114
-4.18543072394 2.36613 -1.15880563841 35 70 117
-6.66946228602 0.185099 1.44338618802 20 40 71
-6.66946228602 0.185099 1.44338618802 20 40 71
-5.81904009658 2.9452 1.94881542402 104 95 105
-4.40692500851 0.567006 1.41807101672 220 222 232
-5.18984478898 3.04488 -1.07444690416 113 159 215
-5.15137182841 0.72018 -1.18382113744 24 41 73
-5.96211229306 2.84509 -0.373458996241 93 128 180
-4.25872771737 1.60798 0.721519384232 38 73 119
-4.31510644412 1.69376 -1.33860655385 46 77 122
-3.97640568037 -2.68581 -0.21864559907 41 63 99
-5.48516653237 -1.59311 2.23332596183 150 137 153
-4.35255916033 2.68088 -1.04798342651 66 113 175
-4.76214792337 1.44427 -0.401893431159 144 128 148
-5.63936339197 -0.00552329 -0.865633846215 33 53 86
-4.26520450572 1.80437 -1.46940252529 39 67 112
-5.22845870231 2.34558 2.006976558 135 133 149
-6.566172037 2.7311 2.48410196382 43 92 138
-5.76544283621 2.44936 -1.05261829835 38 60 99
-4.21118230248 2.4671 -0.98609714237 54 95 151
-4.18828102731 1.88878 -1.24849918427 19 43 86
-5.00856269234 1.97666 1.95353114437 23 36 68
-4.68576523634 1.72649 1.68692335797 26 46 82
-6.9209563918 1.03004 2.02594413677 18 36 67
-6.52619389314 1.1637 2.86264692503 34 44 65
-5.19547703982 -1.35997 -0.807132744697 26 43 77
-5.20434161803 -1.38125 -0.823359246266 22 39 72
-6.58634114254 2.91494 0.583911043752 37 61 94
-4.75549326405 1.40305 -0.443109397839 138 124 143
-4.55283532456 1.37444 1.42068174756 31 57 96
-6.59815424651 2.87129 0.549980907081 39 64 98
-3.98949440162 -2.51531 0.030430757648 20 43 82
-6.79111815061 -2.43796 1.37212785369 86 94 121
-4.99392889524 2.01082 1.93067538478 24 37 69
-4.78445144221 1.4647 -0.424155864712 125 118 137
-4.13305792491 1.96599 -0.937788094255 16 35 77
-5.32366905293 -1.5537 2.17727423723 84 81 98
-5.9871767845 -0.888676 2.25469436216 46 33 39
-4.12422175283 2.40382 -0.471491552811 39 87 138
-5.57031248105 -1.40061 2.26540059905 147 128 133
-5.67310880974 -0.0152391 -0.866706776501 36 54 87
-4.16346065572 -0.0657075 1.08467215355 192 193 203
-4.13862787513 -0.0587988 1.09612923033 195 196 206
-5.3724867353 3.06821 -1.04959087986 110 155 213
-6.94580237687 -0.0137194 2.48294022715 25 44 73
-6.52946025694 3.01969 2.11286103553 48 102 150
-4.50102502641 2.94553 -1.12514046578 76 125 186
-4.03614401381 -2.75278 0.617093526266 21 35 63
-6.34100286002 2.65413 0.0242925422428 49 96 140
-4.14742220572 2.48386 -0.444710152813 38 91 145
-5.19375472534 0.140022 2.03379116003 21 27 49
-6.72544386628 -2.46119 1.57202251714 85 90 114
-4.19793799178 2.81591 -0.711136871177 49 97 160
-4.45071284234 1.19837 1.07260039396 40 73 116
-5.5513368949 2.77876 -1.09914139259 84 123 182
-6.46479664809 0.974342 2.93999189024 76 83 93
-5.59198967064 -1.44156 2.2809952552 155 135 141
-4.55564867685 1.41232 1.34357081805 29 57 96
-4.50298196215 2.83309 -1.26200712681 62 107 167
-6.67454869878 0.146189 1.42719233408 21 39 73
-5.21080369414 3.06352 -1.07130391282 114 160 216
-6.91286690325 1.35181 2.09936365921 18 42 76
-4.63998208098 1.40583 -1.67568745731 40 70 111
-6.72915135865 2.10652 2.7293375216 24 38 63
-5.29420307957 2.03842 2.24831514274 139 136 153
-4.22703038359 1.73543 0.641667625134 36 75 123
-6.89663759774 1.2115 1.65621362362 18 36 65
-5.57829656938 1.47025 -1.03606452796 27 45 76
-4.13299939886 2.31735 -0.882406477498 24 61 114
-6.45987793614 0.81096 0.136671424501 25 43 74
-4.38228150714 -0.364324 -1.61237516511 25 51 91
-4.89777203678 3.15755 -1.04020184875 127 177 221
-4.89243538776 3.13126 -1.04899706206 126 182 231
-4.7158014131 2.08862 -1.58690979977 51 86 133
-5.19451303412 -1.54354 2.1423263073 20 33 57
-6.94117774213 1.00977 2.00728450412 19 35 62
-5.46070817234 -1.52681 2.19695791645 159 140 150
-5.15339318886 0.169967 2.02090194384 21 27 48
-5.5709338216 1.61115 -1.05867196136 29 42 76
-4.15079906648 2.31709 -0.944607331452 54 91 144
-4.76026033231 1.44532 -0.44203205844 137 123 142
-5.76494166648 -1.82341 2.33818942238 13 18 33
-6.84516179473 1.42417 1.74293046227 21 40 76
-5.71928982876 2.44699 -1.11914985104 45 67 107
-4.6680005344 1.06568 1.60764095787 28 52 98
-4.21306370384 0.454776 -1.35184963345 46 75 121
-4.18752628512 0.45692 -1.36371551499 39 66 111
-4.57533955164 2.87299 -1.27639884815 69 115 175
-6.54687974419 2.95135 0.614428056059 33 57 92
-5.17553481751 0.927154 -1.24995240355 25 40 72
-5.151996194 0.931796 -1.26485130631 27 44 77
-4.08909167284 2.45068 -0.498545711079 40 85 137
-4.87432172177 1.62651 1.96919058313 18 31 62
-5.32211875294 2.07854 2.2585392369 144 141 158
-4.14112530299 2.47692 -0.481366414434 38 87 140
-4.18699616622 1.90253 -1.21193965567 30 52 95
-4.72155803204 -0.50517 1.83812278481 163 148 156
-4.70178616064 -0.503837 1.85825406439 160 145 155
-6.55171344181 -1.60286 1.79137418391 12 26 48
-5.01375600276 -2.51547 -0.988234458624 72 81 111
-6.93550639375 2.36251 0.873796861531 34 59 96
-5.83521795 3.00314 -0.585879339194 94 151 201
-4.2488370251 0.146439 -0.933836947531 13 26 55
-4.74563481365 1.36165 -0.442376011452 149 132 149
-4.2654932965 -2.31802 1.52532021398 16 34 66
-4.26728149489 -2.34006 1.54290523521 14 30 59
-4.19472011896 1.08849 -1.12408118679 30 54 95
-7.04621507587 2.29604 2.20840242506 37 64 99
-4.37923767838 1.98799 -1.4610039819 67 98 142
-4.62872891153 2.52733 -1.67302680374 69 114 171
-5.82449869317 3.12903 -0.388962351524 102 163 211
-4.64214476845 2.42939 0.826478085813 33 68 113
-5.86424907754 -0.430214 2.14931660498 25 29 46
-4.9867086091 3.30987 -0.0374375479244 85 120 173
-4.62840372072 2.49827 -1.67368304374 71 115 172
-5.71046640658 -0.0196487 -0.872723092507 54 67 91
-4.47510936024 0.503158 1.52395315657 200 198 211
-5.34266870043 -0.138303 2.05280494112 116 107 119
-6.95379364793 1.04807 2.08097373889 20 38 71
-5.22642668333 -1.57223 2.17130502631 18 34 60
-3.97820345894 -2.80362 0.235068864103 38 49 81
-5.50376527139 -1.73949 2.29251778346 14 22 43
-6.12672532657 2.43608 2.66421495949 33 64 105
-5.49429466692 2.49745 2.16843435886 137 135 150
-5.48430804638 2.5223 2.15939037682 138 135 150
-5.11305415987 -1.52146 2.11893766497 16 31 53
-5.64040080753 -1.79334 2.33943025335 13 23 42
-5.67556085571 1.75426 2.45841464247 130 103 113
-5.70785558477 -0.0294788 -0.922384168909 54 69 93
-4.48926134694 0.352426 1.5178635003 217 214 227
-4.46295017022 0.36242 1.5205547 208 205 218
-4.02102533354 -2.77463 0.430970546474 24 38 72
-4.88191189221 0.347713 -1.65506565961 40 60 97
-6.29931937368 3.26566 0.534029051987 34 61 96
-5.30760255491 1.99846 2.26237541606 130 125 139
-5.27526321195 -1.56289 2.17890143869 36 44 66
-6.77850013874 -2.47135 1.36518902263 110 114 140
-4.55727544176 2.82318 -1.31028784835 61 107 166
-6.67726323464 0.886409 2.99201879879 53 50 46
-6.7068256672 -2.46843 1.63864184439 86 91 116
-5.49752191307 -1.55456 2.21592416327 166 146 158
-5.86585984448 3.13184 -0.424834084987 101 162 212
-5.56127667056 1.30643 -1.01179304996 23 43 76
-4.21999116938 1.63052 -1.38371990676 28 50 91
-5.89947360533 2.55464 -0.932939788047 42 75 114
-4.44092264941 0.430063 1.49392067485 186 183 195
-4.23001578063 2.09979 -1.33094304375 36 67 118
-4.07819012082 2.41821 -0.48192788139 39 84 136
-4.14045809405 1.33906 -1.06042290333 13 26 57
-5.21777378881 2.41129 -1.47140115023 33 69 118
-5.15460046541 3.11595 -1.10254343876 122 169 225
-6.87024615649 2.97888 1.7470737575 43 71 108
-6.84631107144 2.98457 1.73310915568 38 63 96
-5.48533883173 2.23095 2.3116463475 146 145 162
-4.12215262971 2.29944 -0.851913868573 24 60 113
-5.44127998364 2.76993 1.96782919562 143 121 134
-5.27441762236 2.07716 -1.49645121451 48 78 116
-5.26976889078 2.06196 -1.51985496196 56 84 121
-6.15555400211 2.44784 2.64440053124 35 66 108
-5.98844308601 2.92208 2.33914692595 193 195 214
-6.00920336902 2.93429 2.32429819182 194 197 215
-4.46506761721 0.406096 1.52794221936 207 204 217
-6.75471624672 -2.48369 1.42520319912 107 110 136
-4.14228396562 0.0622337 0.931122331681 188 190 202
-4.16180845344 0.0565488 0.911443884705 193 195 209
-4.12890580591 2.33359 -0.851551913868 25 61 115
-5.78597072701 2.39978 -1.09582609046 40 64 104
-6.84745759833 1.43859 1.82278695659 19 36 69
-4.31512082689 1.69375 -1.33863288133 45 75 120
-5.53900034557 2.25751 2.31937975114 147 146 163
-5.90231782384 -0.591877 2.26318524086 134 110 120
-5.87851049982 -0.582527 2.25107260371 145 119 128
-5.15693277371 -1.51748 2.12976915648 21 33 57
-4.4857136874 -2.55881 1.73898931779 19 31 53
-4.13109638638 -0.683907 -1.64171093695 21 42 81
-4.00911447156 -2.71914 0.568119612336 22 36 64
-3.99771491969 -2.8529 -0.358397471758 74 84 111
-4.44467168747 0.527208 1.46077665322 175 175 187
-6.3387420231 -2.38633 -0.248358617147 28 43 74
-4.29668648603 -1.30198 -0.278035113523 28 54 103
-4.32367697374 -1.30214 -0.28655860888 27 52 100
-5.70853900442 1.96697 2.51694083583 60 55 74
-5.71746092581 1.97739 2.54170021223 38 37 58
-5.8946267801 0.407974 2.5757458239 10 20 42
-5.65391811608 -1.75264 2.36516406337 18 21 35
-4.11324325955 2.4442 -0.49102631888 38 85 139
-5.05761643358 1.86106 -1.59289801095 52 76 115
-4.24205998539 -2.38361 1.38048993439 16 31 62
-4.25584252156 -2.39507 1.40240092108 16 30 62
-4.00176267322 -2.79251 -0.301980447807 53 62 88
-4.79556945307 0.922114 1.79337937682 22 35 65
-5.73346218173 2.7949 2.1142252309 184 161 180
-5.38280887721 2.06223 2.34956360199 153 143 161
-4.63913870164 2.55856 -1.69187321374 71 116 174
-4.08163356041 1.65157 -0.221244860992 176 164 183
-4.48143951699 1.19301 1.04034263419 39 73 115
-4.1421998091 2.29801 -0.914265688904 46 83 136
-5.45527802747 1.56264 -1.07056638799 24 34 63
-6.37916332393 -2.38413 -0.22848697808 34 40 70
-4.29106033266 0.820551 -1.43183803257 44 72 120
-3.99152337252 -2.80547 -0.336426189509 63 73 99
-5.70850251508 -0.00475414 -0.827828786296 47 62 91
-5.67789780929 1.80934 2.47332651036 130 103 114
-6.7193694273 -2.44718 1.60775449289 64 71 96
-4.03859323456 -2.74484 0.64535778316 18 30 56
-4.5140577448 2.69637 -1.29855068217 49 92 152
-5.32984732546 0.726741 -0.760036837877 26 44 74
-5.32697612882 2.15595 2.24818778924 150 148 164
-4.66837798602 0.370568 -1.62921465368 27 49 85
-4.52175802011 2.80861 -1.28928464957 59 104 163
-4.31255654434 1.51006 -1.38379032208 42 69 114
-4.34656558124 2.77399 -1.04806715069 59 106 168
-5.70377207841 1.6969 2.41449191539 128 101 112
-5.68598129848 1.70069 2.43621140547 132 104 115
-5.74875400575 2.70855 2.24934561286 193 182 200
-4.40167558795 0.103337 -0.237646370315 28 47 89
-4.3896211928 0.110673 -0.213077952427 27 47 89
-4.10753696821 1.38969 0.386081193994 161 154 168
-5.19869182664 2.30077 1.99888956914 140 138 153
-5.28548238822 1.96153 2.22631616169 127 123 138
-6.80626209818 -2.33845 1.04801065135 20 38 68
-4.12341603292 2.26086 -0.85318359781 21 55 108
-5.88575443657 2.9011 2.03089836585 115 110 122
-5.86336643435 2.89757 2.01389326494 106 100 112
-5.63250747319 1.80329 2.46442787601 142 114 124
-5.27717287964 1.99881 2.236312041 133 129 145
-5.01072148535 0.256951 -1.63053849886 29 46 83
-5.16535381395 2.11533 -1.5984222187 27 53 95
-4.78580077019 -0.0668495 1.8976141781 150 139 146
-5.37171112683 -1.54713 2.17735582176 138 125 139
-5.67977790988 2.74176 -0.803616032303 64 93 142
-4.55871178841 2.83564 -1.28308969936 65 111 170
-5.02639366913 -2.93515 2.17911747009 45 50 71
-4.96931338646 1.76987 -1.64985531399 39 64 102
-6.9936216384 1.56189 1.68476549671 23 44 77
-4.96597985828 1.79868 -1.61455171658 30 54 93
-5.18827718847 1.31779 -1.28433205425 21 41 74
-4.21510470879 0.827898 -1.19226520689 14 33 71
-5.48169958245 2.20011 2.32748559906 147 145 161
-6.70951573649 0.604631 2.80991704123 17 22 36
-6.72806984348 0.585443 2.80035818303 19 23 38
-6.51456462613 -1.251 1.94447648433 34 36 54
-5.25647256226 -1.50369 2.12736131094 109 102 118
-4.29764319228 1.70097 -1.24406539649 23 43 82
-5.24026871878 3.02799 -1.06099572565 109 155 211
-6.22223729324 3.09688 2.27850410032 198 199 219
-5.56722669372 2.77191 1.96130339288 109 100 113
-5.55308058931 2.7625 1.93859783264 109 100 112
-4.19395762339 -0.592542 1.24473119672 43 58 88
-4.20944678596 -0.612181 1.25809506767 42 57 88
-6.0737589835 2.56666 -0.599310937593 48 87 130
-4.75146054523 -2.58693 -0.959896544814 68 72 99
-4.73256808089 -2.56595 -0.957227314349 60 66 94
-5.08261157509 1.83064 -1.57190476201 51 75 111
-4.75614405495 1.40419 -0.442423415911 138 124 143
-6.74767903607 -2.36291 1.63728145771 20 34 61
-4.19245840707 -0.291594 -1.50289947338 30 61 110
-5.29568229491 2.15629 2.22162041633 154 153 170
-4.22750528531 1.77378 -1.27274179108 30 53 93
-5.08024986653 -1.49258 2.09701241618 17 31 51
-4.22750528531 1.77378 -1.27274179108 30 53 93
-4.22750528531 1.77378 -1.27274179108 28 51 93
-4.19569213823 -2.4231 1.24113902268 4 16 48
-4.68495412418 0.953906 -1.66810897259 29 51 90
-4.2246392389 1.5861 -0.36975444998 149 136 152
-4.46911963553 -0.885034 1.75497230145 160 151 162
-5.41713239176 -1.53947 2.18411201162 154 136 149
-4.18857955736 1.84949 -1.24612547835 14 37 78
-4.44796473197 -0.0389147 -1.55718922871 29 53 91
-3.98232809633 -2.84585 0.271529771475 53 63 93
-5.21544950273 3.00917 -1.06541578387 107 153 208
-6.86975188021 1.44167 1.76091066796 19 37 69
-4.98398520011 3.06272 -1.0997714095 104 151 212
-5.23916680891 -1.53708 2.15111312733 43 48 68
-5.12477425496 -1.4877 2.10228158298 30 40 60
-6.34823634523 2.24144 -0.314754853842 27 63 100
-5.7941752249 -1.06559 2.20437331138 139 112 118
-4.16019364259 2.37388 -0.899854847279 28 67 122
-4.2182050455 0.850212 0.182461722506 189 181 199
-5.24950719969 2.04545 -1.56161054571 29 54 89
-5.24720250809 2.06288 -1.58388187249 29 56 93
-4.18499035523 1.74391 -1.22015727225 15 33 73
-5.67391804424 0.00415937 -0.830017387851 36 55 88
-6.01295003464 -0.865838 2.22295188359 17 18 30
-4.90988002296 1.53776 1.96208761348 19 29 58
-4.00957865473 -2.8862 -0.34277754247 80 91 119
-6.86052386899 0.372299 2.04270279384 20 39 69
-4.92469921693 1.20883 -1.66038329467 32 45 74
-5.00284792635 -1.46691 2.06223452953 17 31 53
-6.61909413179 0.254601 1.50826010758 22 39 66
-6.67640946442 0.477206 2.74203055977 13 18 32
-6.5543499536 2.98248 0.62891262962 30 53 87
-4.35004065687 2.80432 -1.08258693414 64 110 173
-5.15913222765 0.13805 2.0431442292 25 31 55
-4.27195267036 1.65896 0.722966974768 39 75 121
-5.68285349307 -1.798 2.34327707275 13 19 36
-4.36741017956 -0.533108 1.65205422327 166 163 175
-4.39066928669 -0.518005 1.645980732 167 164 176
-5.30648759866 2.11719 2.24042928889 147 146 162
-4.11269559911 1.63294 -0.256202330182 176 163 181
-5.10366522976 -1.54056 2.17158309018 11 22 45
-5.34008422086 -1.5202 2.14826938871 142 125 138
-5.62969162467 0.0235234 -0.837917812637 34 52 86
-6.30912761799 2.2799 -0.337863474614 26 58 96
-4.31017210196 1.68115 -1.27909722377 36 61 103
-5.3279346169 1.9266 2.27313190802 116 108 121
-6.86856500375 0.344596 2.07262034975 20 39 68
-3.99836943873 -2.80869 0.359807083021 38 48 81
-4.85948806194 1.60285 1.98570568413 18 32 62
-4.20350793038 0.904603 -1.1278607728 23 42 80
-5.72883932065 1.75259 2.44557375007 90 75 93
-4.50552566474 -1.15839 1.82849926399 15 24 45
-5.91977479115 2.85806 2.44189927048 215 207 225
-5.15948153461 2.42329 1.80555457966 134 121 136
-5.29092184638 -1.52776 2.15128141545 100 94 111
-4.65598676614 2.56751 -1.6534638448 68 115 173
-4.02833154394 -2.74996 0.466822197615 16 25 56
-4.48445820272 1.2355 1.01541875133 47 76 115
-4.46200997995 1.22705 1.00019254713 40 73 115
-5.37573834011 2.55833 1.97787914719 142 128 145
-5.37122661827 2.53396 1.99176953866 169 152 170
-6.19588352074 3.03444 2.12796479233 232 225 237
-7.03332367338 2.32625 2.2607844281 44 71 107
-6.03536869179 -2.38799 -0.561576922407 25 45 78
-6.05375886974 -2.39334 -0.540591180701 20 37 71
-5.90963029457 2.03666 2.67989792534 16 25 50
-5.42023278979 -1.50455 2.1865715067 161 138 149
-5.31482664553 -1.24388 2.17739926715 146 124 132
-6.95022771789 1.02688 1.98091523529 15 30 60
-5.24721181717 2.26832 2.02312628887 145 144 163
-4.41359186147 -2.04822 1.58942043283 19 33 64
-4.49585255153 2.91781 -1.1409108527 84 132 193
-6.53069496443 -0.568783 1.5178081341 22 39 72
-6.67249046248 -2.42858 0.416829537972 48 65 97
-4.70522077745 2.41926 -1.23568657994 54 94 147
-5.72070710925 2.74243 -0.774453530033 70 98 147
-5.04346926454 -1.46449 2.08278291748 18 30 51
-3.97191199259 -2.71516 0.251174141224 31 48 79
-5.80712065792 -1.8014 2.37299034826 24 25 37
-4.41641143353 -2.78173 1.5677811866 36 42 65
-5.68248403926 2.3543 -1.1270757554 33 50 86
-4.27331907303 1.59645 -1.36619818334 36 60 105
-4.04138896779 -0.560072 -1.41075606008 69 110 163
-4.04264933125 -0.559055 -1.43913601047 55 92 144
-4.38893868083 -0.00163302 -1.5872246892 25 46 87
-5.52046184903 -1.71994 2.33558468949 12 22 45
-6.58113639342 2.94024 0.605327502065 33 53 87
-4.40010699376 1.46887 -0.460670428238 141 129 144
-4.21633172046 0.833811 0.1327021651 180 172 191
-6.25129859432 3.02918 2.31478983719 215 221 239
-6.32883790251 2.86063 0.161906726863 61 104 149
-4.85954721884 0.693446 1.96161035727 23 35 59
-4.85242164623 0.670866 1.94586918136 20 30 54
-4.21863129274 0.865525 -1.19079442287 12 32 70
-5.35006927803 2.83883 1.97230314315 109 91 100
-6.63028252058 0.252205 1.49236872449 20 43 73
-5.13172987431 0.647078 -0.796195903819 22 39 68
-4.46354657885 2.95444 -1.09783605462 56 103 165
-5.61545826302 1.47352 2.29143352385 37 36 54
-5.61189568651 1.4737 2.3196474047 30 33 53
-6.67060051125 0.290837 1.50179174035 21 36 65
-5.74025732319 -0.00435853 -0.838398656782 53 66 91
-6.07435014152 1.73187 -0.754118689764 47 70 104
-4.21397493286 0.825 0.23171290165 195 191 209
-4.96563104712 -1.43866 2.04880363097 16 28 51
-5.68838821743 -2.41686 -0.833769319088 33 48 80
-5.85341992481 0.257425 -0.596879453418 22 44 78
-6.07235584835 1.73504 -0.757977147329 47 70 104
-4.7213482536 2.40693 1.25447448164 16 25 53
-5.56877303289 -1.71442 2.3237016085 17 23 46
-5.17217184375 2.3749 1.93980526263 129 125 141
-4.20342648641 0.866145 -1.12291428244 17 37 75
-4.05664570921 -2.495 0.699500629028 38 67 105
-4.06628134333 -2.51497 0.717321823017 37 60 98
-5.2059190821 -1.50957 2.12603650174 44 49 70
-4.12891720633 2.14222 -0.822579750158 13 34 78
-6.0723510541 1.73502 -0.757968371503 47 70 104
-4.00802237861 -2.79008 0.395117568033 26 40 74
-4.51658104317 2.73745 -1.29816355771 50 95 154
-6.07422736181 1.73198 -0.754311108954 47 70 104
-6.63013869291 0.252227 1.49263199926 20 39 69
-6.29544251721 3.26339 0.509212396614 36 64 98
-5.02278525597 -2.90069 2.14922060732 45 53 77
-5.70209959572 1.77543 2.46239871175 110 89 102
-4.85761001345 -0.0693914 1.9023729157 151 138 144
-4.17250002851 2.35369 -0.926553194896 45 83 137
-4.29618545004 1.77179 -1.43642208883 41 71 116
-5.73184389195 1.7957 2.45300606299 69 60 81
-6.60613746955 2.99803 2.14187370631 55 112 162
-6.26140915159 3.30137 0.521032977156 34 62 97
-5.54903234753 -1.74512 2.34398438538 11 19 40
-4.26129790428 -0.679648 1.41807061461 147 155 177
-6.56265258475 -1.216 1.93467067812 27 34 55
-6.52661190347 -0.65938 1.12939166082 23 47 81
-6.54699760275 -0.678357 1.13525256221 21 44 79
-6.73533936785 2.56713 2.44059510424 37 69 106
-6.33475272418 3.01143 0.319197587642 77 103 144
-6.36091439043 3.0071 0.308853912349 79 100 134
-4.5295772595 0.165071 -0.479903545269 22 34 66
-5.47964482638 -2.44021 -0.901371975814 38 52 84
-5.7485479301 2.791 -0.572196092112 68 94 141
-6.0699337557 1.66945 -0.766684263223 48 69 102
-5.8034749588 -0.524042 2.13457877269 137 115 122
-4.5255264808 -0.368589 1.73327620281 159 150 159
-5.78828987596 -1.83219 2.3655346876 13 17 31
-6.60060912307 0.126348 1.38565946585 23 42 75
-4.96686739744 2.15127 1.76349342432 22 31 59
-4.98984583019 2.13619 1.75605645738 20 29 59
-6.86889074445 2.44905 0.833667026378 39 73 110
-6.84298112767 2.43797 0.829574269596 37 70 107
-5.29661199897 2.50461 1.98985159484 167 149 166
-5.29809587906 2.5256 2.00903658181 163 144 161
-4.09875623192 1.36396 0.354597308114 158 151 164
-5.37970333288 -2.40168 2.41239999498 10 23 45
-5.35254018183 -2.40405 2.42061379957 16 31 58
-5.20881371697 2.42808 1.92279267504 121 114 128
-6.06960441374 1.66988 -0.76587282384 48 69 102
-4.93506721822 2.16434 1.8312980783 31 45 77
-4.75698318863 1.10289 -1.59742323234 37 59 97
-4.77189139258 1.11714 -1.57778134967 34 56 95
-4.05667254609 0.610832 0.660863656065 41 56 81
-5.06288432592 1.80125 -1.58147394379 47 74 112
-4.24084950883 0.00242495 1.23794911965 224 226 237
-4.23138933252 -0.0407921 1.23253031311 223 225 236
-6.52914846371 -0.100346 1.65434066479 20 38 69
-4.10269393652 -0.564088 1.19152464469 25 48 85
-6.61636520908 0.103665 1.38038801883 23 42 76
-6.88477163955 1.27343 1.71485329906 19 36 70
-6.88960407288 1.27296 1.74292677388 18 34 67
-4.51219493215 -0.173418 1.70490794896 167 162 175
-5.21928012572 2.39675 1.92136359429 125 119 134
-7.03832665678 2.29315 2.12063642684 25 50 87
-4.29977612969 1.7177 0.766107390977 39 76 125
-6.09151731736 2.16423 2.9001179847 20 33 61
-6.08573924611 2.13864 2.8890020449 19 32 59
-6.62955245114 0.161235 1.38336471953 24 42 75
-6.28294868604 3.37121 0.617601216529 28 56 88
-6.59072825266 1.16434 2.81585294608 30 43 67
-5.28556141265 -1.07368 2.16985410807 141 127 131
-5.28884423782 -1.10065 2.1784457444 136 121 125
-5.22808008531 2.45604 1.9788851627 123 117 132
-4.01574633233 -2.81045 0.431664625902 32 44 76
-5.30294029623 -1.49572 2.13115903725 149 133 146
-5.35729052185 3.17607 -0.892244376889 113 161 218
-5.07425079971 0.188704 -1.3861881835 23 43 75
-4.7050811603 2.90993 -1.28340509424 84 134 196
-5.38453852061 -0.38202 2.10152111091 157 134 141
-4.21407587352 1.09704 -1.20310549739 45 69 112
-4.05975186133 -2.84183 0.650638182108 51 60 85
-4.53853438825 0.836024 -0.393468058086 158 145 165
-4.20977727547 0.387437 -0.0496993265356 23 37 66
-4.22634277241 0.392644 -0.072304695612 15 28 55
-5.95761119363 2.71957 -0.615519346162 54 91 137
-5.39670563472 2.10831 2.312445112 139 136 151
-6.43645051712 2.48436 0.0614970695786 30 64 103
-5.07983078811 -2.88772 2.20415684587 31 38 59
-5.49666386742 2.20913 2.3511964854 142 140 156
-5.20803634546 2.45805 1.95216576125 120 114 128
-5.21695529726 2.39651 1.95044053699 127 122 138
-5.53445819066 0.918615 -0.966039479218 23 40 70
-5.85497438183 2.42822 -0.987480598531 39 62 102
-4.08878881129 2.08406 -0.240182782866 38 73 118
-6.1193509375 3.12325 -0.0795445168512 77 125 175
-6.67115109044 0.175915 1.50683281787 17 35 64
-4.22350374846 -0.783036 1.48224636164 67 83 113
-4.21690852564 -0.808285 1.47074896107 56 76 106
-4.29478355663 1.70247 0.733946807739 39 75 122
-4.73924625103 2.89698 -1.2965097108 86 136 199
-4.57046231754 0.123242 -0.49800857574 22 37 71
-4.27032974362 -0.641195 1.3967405354 182 185 203
-6.6363821016 0.139149 1.38150085939 23 40 72
-5.65546815951 -0.762743 2.24739751458 166 136 143
-5.22162346357 2.42702 1.95044741742 123 117 132
-5.9042852973 2.22997 2.63086148129 18 33 62
-5.91038917974 2.24807 2.60967641714 23 38 69
-4.16063692808 1.86255 -0.496015325194 133 122 136
-4.12146558953 2.16981 -0.850864832924 23 48 94
-5.62166447306 3.03855 1.68602885028 161 128 138
-5.6073767154 3.01448 1.69153270177 159 127 137
-6.51104471293 -0.0781102 1.65181167143 20 37 67
-5.5324871686 2.91963 -1.04461323547 96 136 194
-5.50477333306 2.91776 -1.03810298822 96 135 191
-4.35417664645 -2.78156 1.50565717835 37 43 64
-5.48084520984 2.84811 1.7813106534 100 90 99
-5.47941926993 2.82198 1.76994576029 106 94 101
-4.07533955681 -0.446286 1.00819216384 26 50 87
-4.07764456481 1.64991 -0.22833527805 136 127 137
-6.51689265179 -0.13893 1.65737656236 20 39 70
-5.26818256847 2.99762 -1.07558966602 104 147 205
-5.19859905338 2.45922 1.92417810527 118 111 125
-4.2108606086 1.62772 -0.408150640509 149 136 153
-7.00522080429 2.34361 2.12491888298 28 55 91
-4.22006861476 2.45439 -0.192644360502 59 108 171
-4.22026026855 2.46347 -0.219693799846 58 106 169
-4.54445660373 0.741236 -1.64996606356 34 56 93
-5.22218632959 -1.47652 2.10355990869 121 111 126
-6.59931485676 -1.58337 1.00903335831 19 41 80
-6.64452093305 0.116882 1.45733641783 18 37 70
-4.03093587275 -2.7631 0.685238777507 22 32 57
-4.38047244247 0.793416 1.1006375947 245 246 251
-4.19296307996 2.49565 -0.970685214174 48 89 147
-4.20858223765 2.50798 -0.991141154948 49 90 147
-6.84235773451 0.413246 2.03549058489 18 36 66
-7.06403315248 0.0282582 2.56270805336 18 31 54
-4.11273218098 -2.00653 0.694451858397 21 43 80
-4.09396571219 -2.02688 0.687504222162 21 43 80
-4.65209740227 2.26129 1.14825014361 27 52 91
-5.24499811209 2.49363 1.95271433058 118 112 125
-6.2047022345 3.33726 0.449624602618 44 72 107
-4.80653806905 1.96157 -1.43136720347 37 73 119
-4.1625119607 1.9478 -1.07680519456 23 45 86
-5.6747780614 -1.72376 2.33678358892 42 40 54
-5.92137790168 -1.17255 -0.273239488364 17 39 75
-6.55758432867 2.40819 0.27382426355 37 73 110
-6.85618654048 1.92872 2.70100390308 18 33 52
-4.23037991283 1.81352 -1.47052583749 36 61 107
-4.64943851476 2.50206 -1.63521986212 71 114 170
-4.43817239798 2.937 -1.07370730527 52 98 161
-6.75121320613 2.55973 2.39923184327 37 67 103
-4.21242407627 0.845661 -1.15461081659 12 32 72
-4.16675165924 2.00998 -0.989243495986 20 44 87
-4.1592356704 2.03636 -0.997178198995 22 47 92
-3.94798158832 -2.81547 0.0565681242268 51 62 94
-3.93386776844 -2.79426 0.069471154432 45 59 91
-6.56707095138 2.84575 2.31559014065 71 106 150
-5.3417546771 -1.40896 -0.774532695107 18 36 71
-4.23021062673 -1.11696 -0.136327904708 22 49 88
-4.24302257228 -1.14216 -0.140381798049 27 56 95
-4.90982811893 2.14466 1.82848094305 22 38 72
-5.08470922699 -0.374069 2.01813998672 171 153 161
-5.07967632299 -0.401561 2.02401532827 170 152 160
-6.78900119024 -2.33777 1.6000210273 24 42 72
-4.16752347631 1.63297 -1.01255750891 36 51 83
-4.65170298204 2.5382 -1.64666534542 70 113 170
-5.26912864807 -1.4655 2.10607174794 150 132 145
-4.31218666133 -0.466344 -0.140793120438 27 53 96
-6.86836972369 1.34092 2.7815341372 108 115 117
-6.89602651921 1.33408 2.77950854327 133 137 135
-5.46963143586 1.94268 2.35771092881 129 111 126
-5.45429517439 1.96072 2.3736859552 125 109 123
-5.41867887809 -0.861843 2.18858159113 139 123 128
-5.42780110615 -0.88813 2.1950361737 130 117 120
-4.78886486692 2.66884 -1.49433903865 71 118 179
-4.9032329625 -1.36954 2.01430290518 19 27 48
-6.97966811737 1.79022 2.55423391916 32 47 70
-4.79138074566 1.56112 1.88260269334 19 34 65
-4.80424215363 1.58483 1.89201615232 18 33 64
-4.15485491056 -1.77372 1.01010844086 13 25 47
-6.48639312004 -0.116139 1.66690016267 20 38 69
-4.6379123272 1.55218 1.57344354301 28 51 95
-6.3940714813 0.221178 2.84001217894 29 42 67
-4.5938851413 1.18281 -1.65701120897 38 68 108
-4.46766426622 -1.92543 1.60516219021 15 24 48
-4.19804906023 0.623161 0.228117490571 191 187 203
-5.62233021903 -1.72099 2.33329464644 21 24 40
-5.22549500728 -1.61781 2.18448251092 15 25 47
-6.7925634811 2.53461 2.44597887269 31 66 104
-5.0921448818 -1.45638 2.07941039607 39 46 64
-5.71488977237 -0.753073 2.24709012327 144 115 122
-4.79210192821 0.475798 -1.68006295481 37 57 94
-5.61011249053 1.75999 2.4236570948 147 116 125
-4.5913801427 1.15188 -1.64387393825 37 67 107
-4.11271395431 -0.472586 1.13918410197 56 77 108
-6.41886129116 3.18411 2.10318220973 201 188 168
-4.35495483471 -2.74217 1.56910201618 24 31 53
-5.34671043021 1.9778 -1.47276225436 25 49 78
-5.32891286867 1.9997 -1.47731180411 39 65 99
-5.37211407646 2.40199 -1.40516843543 57 84 129
-5.49953543213 0.558484 -0.948836382512 27 43 76
-4.44810669542 -0.88058 1.76173161975 157 148 157
-5.25910460798 2.18486 2.14819908818 173 166 184
-4.29915438262 0.82371 -1.55866314347 47 77 123
-5.79954530877 2.46388 -1.03828392479 40 64 105
-4.5242998179 -0.444057 1.73719025788 171 162 170
-4.32576516483 -0.617491 1.51699036858 203 201 213
-5.56862990769 -1.6068 2.27890967714 167 147 163
-5.3388009025 2.36978 -1.44514323425 48 75 119
-5.67727600318 -1.25783 -0.433598969369 28 51 86
-5.65471874037 -1.26264 -0.450502823795 27 50 85
-6.68262954819 2.27439 0.626668411971 28 61 99
-5.39971320226 3.01193 1.56396727773 124 99 108
-5.41929861146 3.00339 1.58297374627 147 119 129
-4.14153472603 -1.94652 0.462973552936 29 53 98
-4.1446519221 -1.69468 0.73927173152 17 31 60
-5.50402221337 1.45434 -1.02692467353 30 50 83
-4.34666313487 -2.21392 1.58824294727 26 38 75
-6.40159954847 2.88625 0.445257607003 46 89 130
-4.8056649305 1.98714 -1.46063921278 35 69 116
-6.66301689284 2.2788 0.646925414464 27 66 105
-4.66129131801 0.548904 -1.6957127043 50 71 109
-5.18743841013 -1.44821 2.08060361844 131 119 132
-5.20315753442 2.36334 2.03222315578 136 133 149
-5.34122884393 2.88759 1.51103904395 147 118 131
-5.3696010125 2.88516 1.50832971733 150 120 134
-6.15516828463 3.33233 0.307725884476 53 84 122
-6.12197468859 -2.40941 -0.457710767104 16 38 67
-6.09823552492 -2.40703 -0.473494081328 21 45 79
-5.69424036436 -1.69188 2.30991856682 123 108 119
-5.25577667886 1.69291 -1.38035609134 25 42 72
-5.27301097361 1.68014 -1.36142617891 25 44 75
-4.09662599104 -2.12544 1.03284541145 29 52 89
-4.18381952728 -0.335507 1.26182877643 205 206 220
-4.1874644587 -0.346203 1.28811288258 194 194 207
-6.53056591574 3.04463 2.20157073014 76 110 155
-4.27986814362 1.74636 -1.4199027695 39 66 111
-4.95055762873 -1.36458 2.01402903191 46 50 70
-5.93226239288 1.28109 -0.886790532248 56 72 97
-4.34395207942 -0.176249 -1.59206494674 18 41 80
-3.9708130554 -2.75027 0.269455203476 23 37 66
-4.09446307875 -2.57758 1.11606612227 14 27 55
-4.08145107245 -2.55229 1.11923472657 18 33 63
-4.12027792314 -2.08475 1.02334128035 24 47 85
-6.26147878619 3.2646 0.470637017487 36 65 101
-4.61766230877 0.867117 -1.67008190929 44 70 109
-4.36749620881 -0.41218 1.56825497911 208 208 220
-4.20337327868 1.63559 -0.955950514907 14 26 55
-6.36748321819 2.92925 0.491229076507 40 82 120
-6.62331260888 0.17098 1.49636657778 19 39 70
-4.86994378288 -1.33528 1.99159657105 29 37 56
-6.13412565627 3.30272 0.259265061209 34 68 110
-6.96831450958 2.35726 2.18288058595 31 60 97
-5.72088475278 1.59871 2.34520527557 65 56 68
-4.17156070895 1.93059 -1.11839877285 28 50 91
-6.22286573885 3.2319 0.411996288679 38 68 107
-4.68660890181 -0.220302 -1.64297932256 34 60 95
-4.56514203097 -0.371342 1.7560828393 172 162 171
-4.15766920796 0.996036 0.428225007749 198 193 207
-4.13080980226 1.00409 0.434005563532 204 201 216
-6.94909772351 0.960407 2.59892916969 24 45 74
-4.95083525095 -1.1759 2.02666157461 156 138 147
-4.32612419013 1.85532 0.604825623218 37 72 115
-4.34561915158 1.85908 0.625457736002 29 65 108
-6.58483933779 2.81513 2.3379226471 59 102 149
-4.36954814062 -0.326534 -1.60888227563 62 96 142
-4.39193187526 -0.310683 -1.61710790166 73 104 148
-4.0167303871 -2.3138 0.188532836051 31 55 97
-4.0130696227 -2.28883 0.1750012728 32 57 101
-5.01940666211 -2.87693 2.16750289381 32 42 66
-5.14685085343 1.69618 -1.58603682197 21 39 72
-5.12384982963 1.70529 -1.60045971364 23 41 75
-5.27528291664 -1.43109 2.10231542161 164 142 153
-6.62541874865 0.170833 1.49271989775 19 39 72
-4.49864356671 3.05417 -1.06654966232 81 130 196
-6.86135373988 0.337403 2.19928961229 27 51 84
-6.24427109056 3.35874 0.616230374517 32 59 89
-4.67686305722 2.57004 -1.60448996022 69 114 172
-4.4786913095 -0.525983 1.65568694776 164 153 163
-4.45631440357 -0.527584 1.67349489028 161 150 160
-4.20834089464 1.82509 -1.34737624847 24 46 87
-6.24361270145 3.3008 0.487905526869 36 65 99
-4.5418508028 2.71979 -1.32126683341 52 96 155
-4.74439151574 0.286816 1.76962775381 150 137 145
-5.04076065053 2.22827 -1.58039900788 50 86 138
-6.16028036285 3.29739 0.362194675139 39 70 107
-6.99339605757 1.4403 2.57249034975 17 35 65
-4.42211271184 -0.882526 1.73651783299 155 148 158
-6.04206351608 0.342186 -0.44013003596 48 64 91
-5.53944404835 -1.68739 2.30354958523 23 28 50
-4.8164483154 2.39903 -1.14977406804 41 82 139
-4.85142344645 -1.03002 1.98586705627 158 140 149
-6.21520919559 3.30144 0.450624286885 39 69 104
-6.23568510912 3.26498 0.435670338732 37 67 103
-4.16973008959 -0.471531 1.18854241108 164 169 189
-4.91634588705 2.20342 1.74792645328 26 38 68
-6.69159194114 2.27363 0.597539300887 29 60 99
-6.13919570218 3.09576 0.0457816823837 55 112 162
-6.43292883192 3.04247 2.54570050393 26 24 24
-4.97189414575 3.0928 -1.03863386862 109 158 221
-6.91371104375 1.30223 2.05818770716 16 33 64
-4.85115223891 1.96056 -1.43794302646 41 77 123
-4.13600506522 -0.4909 1.17476862102 78 94 123
-5.12249000352 0.848578 -0.992245640334 19 35 65
-5.17778240141 1.79311 2.31729093635 46 43 47
-5.19712808623 1.80796 2.33235597518 35 35 45
-4.28466692478 2.28366 0.382230416508 41 87 141
-4.28805891933 2.29247 0.355163115702 45 90 142
-7.01898545162 1.58977 2.65872520936 12 22 36
-4.13883065284 -1.81986 0.270186675561 28 55 95
-4.31771089752 0.788165 -1.52108665941 42 72 117
-4.05589698682 -2.85164 0.702122653966 57 66 90
-6.15107299587 3.33176 0.353392942734 50 79 116
-6.89357114392 1.99463 1.72982477604 24 51 84
-4.62842698921 2.44469 -1.61156791306 68 110 168
-5.33567708882 2.83168 -1.15178922391 92 129 188
-5.66653371757 -0.360339 -0.604580176815 20 46 77
-5.10721605626 -1.41881 2.05140563033 116 106 123
-4.41582985569 -2.8259 1.54715312941 53 56 77
-4.31032534563 1.76209 -1.43060038352 37 66 112
-6.97228473319 2.20101 2.41172905596 35 64 99
-5.60413350137 3.2845 -0.461364315198 129 171 222
-5.63228302943 3.28074 -0.465334764819 130 172 223
-6.94460610075 0.495851 2.09069961041 19 36 66
-6.93516837569 0.470876 2.08023371601 24 39 66
-4.78861118067 2.66901 -1.49450041796 73 120 180
-5.5800036152 -2.40685 -0.963890804245 46 62 98
-4.63680984288 -0.371516 1.80385997292 161 151 160
-4.35836951466 -2.82228 1.52196922547 59 63 83
-5.26362750768 1.85547 -1.48671202435 19 35 68
-4.14914692258 2.30787 -1.11303829897 33 67 115
-4.08463677616 -0.528996 -1.48324598746 45 78 127
-6.12104388718 3.37365 0.290302899689 69 103 141
-4.35968062773 -0.52291 -1.59916323301 28 51 88
-6.9510944156 2.03678 2.50871231915 20 42 73
-5.62624029499 2.55793 -1.25022620538 57 88 135
-4.13619002357 1.80222 -0.327575868831 146 134 148
-4.42580344212 1.45099 -0.484554752419 138 124 140
-6.48775866427 -0.11621 1.66565204851 20 39 70
-4.33149776357 2.69607 -1.0628280372 77 125 187
-4.32463912472 -0.111111 1.42185190981 173 171 183
-4.67123319844 2.54346 -1.6066995507 68 112 169
-6.86248665595 1.25416 1.66720651108 21 36 65
-6.92136576333 0.545867 2.60630692574 20 41 73
