ply
format ascii 1.0
element vertex 1013
property float x
property float y
property float z
property uchar red
property uchar green
property uchar blue
end_header
-13.3696139435 5.63156 4.35628783717 68 37 19
-13.6746229482 10.58193 3.55234203182 101 80 78
-13.5835637326 8.711785 2.18746966355 181 168 176
-13.3724741252 8.950488 4.07505964622 58 33 24
-13.9912914788 6.79442 1.76987209005 106 59 32
-14.2031353327 7.323286 0.645817024812 80 47 28
-13.2761210405 8.959037 3.04966456817 225 212 218
-13.2637244141 9.42142 2.71001878201 140 91 56
-14.2509684617 8.503188 1.41394291597 46 25 17
-13.0146091625 7.10942 2.52165524005 122 79 50
-13.1224674352 7.118765 2.9636478141 98 60 25
-13.3923393992 9.46607 3.30517777858 94 55 26
-14.0832190221 10.67039 5.00650340066 218 194 184
-14.9193565648 7.899038 0.817330980025 90 55 36
-13.6857215177 10.42726 2.06043487715 175 112 64
-13.6637146768 10.27095 1.89464228819 156 94 53
-15.1742728209 6.91666 1.67543324622 78 55 40
-15.1686869806 9.69145 5.06927343079 67 34 13
-13.1534675755 6.0349 2.95420072985 60 23 10
-13.9184553399 10.90852 2.47988294557 182 124 59
-14.4259890984 8.144428 0.709623855354 101 57 34
-14.3814771343 7.590559 0.630417222719 129 84 55
-14.2173337399 9.89047 1.06678052113 69 38 22
-13.6365747668 10.1968 2.33632567671 152 94 48
-13.6365747668 10.1968 2.33632567671 152 94 48
-14.2313370009 9.49357 1.02451406773 58 29 13
-14.1138478589 5.39597 1.33192770292 111 98 84
-14.480944108 11.07329 4.99165822927 166 155 152
-13.3122161243 6.51061 2.58535591811 61 35 16
-13.1139364469 6.99508 2.89746527382 77 46 16
-13.7810573093 7.182901 1.77580218941 105 63 38
-14.3020611957 11.0968 1.63462132483 161 101 44
-14.4244142532 5.32056 1.39919117612 111 90 92
-14.23803465 6.90927 1.66503674109 90 48 28
-13.914425674 6.42418 1.73009742278 109 60 31
-14.4277229385 8.180558 0.712194594246 121 76 52
-13.1590360794 7.9369619 3.48932473605 201 187 188
-14.5601653451 7.227782 0.556682473119 88 53 39
-14.2221921065 7.645513 0.769295532139 74 44 21
-13.9969328832 10.95542 2.55688904981 182 115 68
-13.2565082159 6.3946 2.7057392863 65 34 12
-13.9238014659 5.86509 1.57196272252 96 50 30
-14.0896843836 9.6554 1.24535975236 45 21 12
-15.1441139531 8.187225 4.47599909862 63 38 27
-13.9530054682 5.97423 1.59290344483 88 41 21
-13.6325070578 10.46209 2.47180009549 144 90 28
-14.4066178646 8.196261 0.736441562268 118 74 48
-15.6680401387 10.57252 1.59274041234 44 33 27
-14.5754550916 8.573755 0.670814649361 98 55 33
-13.6163268921 10.03521 4.55023442349 184 163 159
-15.6769029173 5.56085 2.68904846921 99 64 48
-14.497130038 11.14997 1.51780666679 181 124 73
-13.283132924 6.26279 2.62542113818 86 51 20
-14.20507979 8.457583 1.41167754389 56 31 23
-14.5604234697 9.08263 0.663709971789 132 136 130
-13.9260726857 7.158665 1.80283563228 90 49 27
-13.5431453127 9.91651 4.53780401996 123 103 100
-14.4031059434 11.36488 4.03958278676 30 24 37
-14.8494039082 11.04737 4.99916926698 128 91 59
-14.3008170524 9.83957 0.953637907845 86 52 28
-14.3488190792 7.9750553 0.71460933837 86 43 20
-13.0842880981 5.70139 3.72805727737 54 26 15
-13.6899459358 5.14442 1.58652375005 108 83 70
-13.7828959198 5.85942 1.65138505871 117 78 59
-14.7123597298 8.526023 0.685586529213 83 45 23
-15.0914503965 9.77422 0.836009349427 86 65 50
-13.7788750211 9.45883 4.49720213867 53 28 20
-14.8721686392 7.9266009 5.1012526007 51 24 10
-14.1291964716 5.48558 1.3017509157 117 108 97
-13.1008804944 5.76858 2.97988541959 99 60 34
-13.568584608 9.03984 2.20326730342 153 144 153
-14.5635877988 8.109735 1.65577068542 118 107 100
-13.6606526044 10.13082 4.53793538436 190 162 155
-14.6927985395 7.8927 5.66361789555 44 28 17
-13.2916738912 8.320661 2.76420821207 221 207 213
-13.1580022933 7.99042545 3.38802422245 223 197 192
-13.9117505095 6.5011 1.70162989049 112 68 30
-13.9799494096 5.99814 1.57108703763 100 54 32
-13.9838855861 9.71228 5.12970442173 35 16 10
-13.9514487873 5.93145 1.58938707673 91 45 23
-14.7217078959 10.78686 5.39275913033 144 98 52
-14.8382704564 10.49542 5.44079522483 97 60 23
-14.0930302967 10.93772 4.2645870832 115 103 123
-13.3769035175 9.58069 4.04999257768 82 40 14
-13.4468911455 9.48124 2.91636528215 133 83 33
-13.5957817803 10.35274 3.37895288614 82 46 27
-13.4184435963 6.1487 2.25035334153 94 53 28
-14.8263611906 7.113587 4.58471651363 77 45 30
-14.5796060276 9.9759 5.48958714761 58 37 30
-14.7575052279 7.883605 5.09228367057 48 26 15
-15.2931129534 5.92248 2.18464914327 75 41 18
-15.104817385 6.93354 1.61865996625 58 36 25
-14.8462376034 9.48978 0.815318246818 100 60 33
-13.3899503223 5.60958 4.40550190203 69 39 21
-13.6634797071 10.55378 3.60346764357 109 88 87
-14.1660630575 8.769402 4.66904574792 39 20 14
-14.7153832115 8.392464 0.689943667994 91 52 31
-14.2504236763 8.415327 1.41916513857 55 30 22
-15.2532401087 9.48432 1.31598388532 83 49 31
-14.1085072146 10.49492 1.28152259288 143 88 32
-14.7256645358 6.68342 4.90071865699 33 28 56
-13.1015968567 5.7497 3.12726179982 107 63 23
-14.6311449018 5.78235 1.28558411431 76 44 31
-13.4273694045 9.282 3.08362909064 132 85 40
-13.7995591554 6.28835 1.65233199021 105 61 29
-14.5148089377 8.741101 0.80993680438 136 97 65
-13.6106699412 10.15378 2.09674098916 145 94 49
-14.3235047885 7.892211 0.751660371883 84 47 29
-14.5019315531 10.49112 0.892361132508 125 80 36
-15.2311075615 7.79559 4.45579299819 46 22 14
-13.8588824959 5.89936 1.65488402396 103 55 33
-14.0476322017 8.890368 1.7547307213 170 151 165
-14.6077559221 10.00421 5.77942548016 135 150 154
-14.3331586749 7.488646 1.68512569281 68 31 16
-13.3431985166 9.19131 3.65771629454 110 65 25
-14.2714506777 7.573588 1.70573362046 89 50 31
-15.2497990304 5.92357 2.09885012127 70 36 15
-15.6738087052 10.77097 1.82944878828 23 21 21
-15.2149992899 9.88624 5.39011319517 49 54 59
-14.2642059583 10.9712 1.32558306602 169 114 55
-15.3673311189 6.71481 2.08957724252 152 128 110
-14.116464762 7.361593 1.23933518315 84 44 20
-14.1312478962 9.57733 1.44803238328 115 87 90
-13.3322337982 5.15666 2.57642442139 57 27 4
-14.9899354258 9.04288 5.34222387276 83 49 18
-13.6604720494 10.14674 4.71036860773 145 123 118
-13.5134020713 9.94542 3.88296307115 73 32 17
-14.2678514815 11.05911 1.40179521899 172 104 54
-13.0762903724 5.32338 3.50918008056 37 16 9
-14.8171759225 6.44636 4.88153342832 47 32 54
-13.8007020525 5.84533 1.57221335139 83 58 54
-14.5169240731 11.20373 4.57353322618 96 89 99
-14.0409743488 10.63966 4.93915098252 213 186 175
-14.5871478317 11.10097 5.03362982879 107 107 109
-15.1852832684 6.94079 1.61654949256 74 51 35
-14.7198031946 11.47303 4.04491600084 36 36 42
-14.315208741 8.694836 0.9086264182 90 58 36
-15.6441500021 10.49019 3.8212282981 84 50 33
-14.5997407695 8.980813 0.711432083424 100 58 33
-14.3785087562 7.99873647 0.704102260763 127 79 51
-14.6469155041 7.226935 0.571096147857 100 67 51
-13.4246882024 6.20077 2.34462400131 113 72 32
-15.5334178256 8.757856 2.25020425386 56 38 29
-13.2329296458 6.67927 2.53537043606 55 24 13
-14.2677237995 6.55371 1.51560661428 63 30 20
-15.0927094339 10.95559 1.23854222973 164 134 99
-13.8294948155 7.719461 4.42512598546 127 121 139
-13.8081792835 10.83679 3.88097986852 108 103 118
-14.2479896949 8.490812 1.41133965876 47 23 16
-13.2446520772 6.44691 2.74187350796 61 31 8
-13.8353589516 10.90996 2.51089669493 205 142 64
-13.6755855114 10.56752 3.82766932064 111 92 94
-14.2921587848 8.0170864 0.758477384167 105 62 34
-14.9163659989 5.31681 1.48938720045 110 83 77
-13.8480333947 10.53006 1.64877780557 152 97 45
-14.4278337468 8.47792 0.75169700204 104 60 35
-14.4697479074 8.345866 0.719436451089 88 45 19
-13.0827277981 7.337878 3.10990528438 89 48 27
-14.5052053146 8.773533 0.791741120157 141 103 72
-15.1606468397 7.004356 1.6245249538 72 46 29
-13.078242021 5.20182 3.22473238771 53 31 16
-14.0104216861 7.081758 1.11145830619 53 34 36
-15.3002552213 9.92943 1.09755404397 66 32 20
-13.9314278291 10.9099 3.8938246686 75 57 61
-14.4776715709 7.651214 5.73199054084 39 27 21
-13.5756116793 9.94944 3.80701036947 91 54 30
-14.1615964775 8.253137 1.05265641132 71 34 15
-13.0836845982 5.18597 2.87648432889 91 62 42
-13.1370220291 7.9866866 3.55491730333 230 216 219
-13.8039962594 10.81419 3.59001332678 50 30 42
-14.1243128866 9.4576 1.64583718541 127 112 124
-14.3514724309 5.3824 1.39849077738 93 69 64
-14.970954844 8.289475 5.11792053816 51 24 12
-14.4523746636 8.458706 0.7270264973 110 67 40
-13.1812359141 6.17386 2.7613202856 68 33 19
-14.2332185911 9.47531 0.947248625784 74 37 20
-13.8226136436 10.4843 4.47636710225 167 145 140
-13.8317285778 10.82802 2.42445461672 201 136 56
-14.0018604555 7.102653 1.75179607467 76 36 18
-13.828951156 7.193335 1.74778321284 104 62 37
-14.5895064733 8.526673 0.695067423887 98 55 32
-13.8127963543 9.53128 1.64668463085 41 22 14
-13.8420865757 9.25506 4.66066190586 30 15 9
-14.7710610558 11.38711 4.32241250834 69 47 37
-14.3678834462 7.536688 0.633084814396 92 46 20
-14.5238701624 8.126733 1.85263966076 78 44 26
-14.6350136778 7.682585 5.67445759671 61 45 35
-13.2103941932 5.29153 4.37676007986 84 75 91
-13.6616895622 8.722028 2.1238767806 158 147 155
-13.8310999692 7.082085 1.84955617094 81 42 17
-15.0245873964 8.299116 4.50687416699 76 49 35
-15.1215738795 8.799329 0.898785385239 101 92 87
-13.1154180128 5.23331 3.20300106908 42 18 14
-13.5177751766 5.86205 2.04753103989 110 63 36
-14.7348032843 11.28584 1.29234981037 72 68 68
-14.6044508564 10.18306 0.701277400724 113 113 108
-13.4861822785 9.40847 2.770395793 128 78 31
-13.8289321082 5.34349 1.50096577983 78 40 27
-14.5556222904 7.851265 5.0102580457 52 28 14
-14.1882955739 7.351814 1.76530655315 82 42 23
-13.1095152138 7.111143 2.451566123 124 80 50
-14.5535764265 5.72776 1.32517006167 74 43 32
-14.4201733463 10.48149 0.895420236989 122 82 36
-13.3993540072 5.6133 4.42632159478 71 41 23
-14.9818862923 8.699899 5.86897877388 131 138 136
-14.2876408962 8.382517 0.868690365172 81 37 13
-14.6398432933 8.556175 0.709331611593 98 56 34
-15.6698506704 9.52822 4.85110797944 55 81 91
-15.4016047924 11.04662 2.49955199077 209 159 118
-15.6630414737 10.80708 1.78086429665 23 19 20
-14.5449495959 9.07318 5.57684499884 47 30 23
-13.8839566842 7.48095 1.92162210801 100 54 28
-14.4642387537 10.56298 0.940450142352 174 127 91
-14.2375133533 7.9813245 1.71789852549 73 38 25
-13.3305361811 5.20336 2.43585775216 76 40 15
-14.5219551714 9.1802 0.763635592263 103 78 60
-15.5102706021 11.10742 2.13101594719 30 25 23
-13.6321436707 9.99525 1.75543117485 136 86 49
-14.2385190642 8.791663 0.983062269617 88 44 20
-13.5023803043 9.90189 3.08918060452 148 96 51
-14.7303309206 7.9474052 4.9735420135 49 26 13
-13.3390483385 9.75086 2.18154222359 147 93 51
-13.1004416205 7.814277 3.44780069142 229 216 218
-13.1031987353 7.768573 3.49404153067 231 218 220
-14.3211699729 9.0416 0.847042753046 94 50 22
-14.4875697709 10.826 5.26334928358 167 118 63
-13.9311468218 7.591501 1.84164675365 116 69 37
-15.0232391287 9.11451 5.51276562066 63 54 56
-14.8267699615 10.4434 5.42595661925 98 62 21
-14.3745441888 10.65075 5.4097215113 138 94 52
-14.3693197546 7.887056 1.66511559738 54 22 10
-13.4844487859 10.08584 2.58065260181 144 88 48
-14.6982015115 11.10198 1.16742098974 154 124 95
-13.279881712 5.66938 4.40178261031 60 30 11
-15.1446207583 8.272714 4.45879847222 64 39 26
-13.8096648021 10.75168 2.83019779152 127 74 42
-14.6113442849 8.298122 0.695781625616 111 71 45
-13.8362067007 10.86753 3.54021556011 48 34 61
-15.4973620581 8.30481 2.77509580955 81 56 39
-13.651690239 10.4864 3.71181347894 112 93 92
-13.9009129938 5.75356 1.48980504031 79 34 18
-15.0896069635 9.11355 5.60372693391 63 92 105
-13.169689384 5.88043 3.65872332207 50 24 15
-14.3978776069 7.877421 4.80089826151 111 101 100
-14.267357921 10.43262 5.43445556396 73 39 16
-13.2671724563 6.52947 2.6826108433 62 33 12
-13.8079578649 9.57908 1.55436326214 36 18 13
-14.4512841843 11.20819 1.58075669294 180 122 69
-14.4786545102 7.712408 0.631124127338 112 65 41
-14.1488437711 7.9753053 1.80180917843 89 47 28
-14.6656631154 9.19098 0.797331663793 121 82 52
-14.7740822763 11.37749 2.05705528648 170 117 79
-13.9571208624 5.67972 1.4736794207 70 27 12
-15.5236740254 7.9627159 2.10909968285 106 95 85
-15.036982302 7.884922 5.38486404097 53 40 32
-15.0072345704 7.9049364 1.09698329743 83 48 30
-14.1708994018 9.37729 4.80308116217 71 53 55
-14.1662600433 9.31298 4.79334423241 61 42 40
-15.2039632545 9.89792 5.48739854054 39 61 73
-15.6833612663 5.76444 2.20847401313 96 58 36
-13.8979060235 9.75756 1.57040754976 158 142 156
-14.7055499313 6.46745 1.73788585485 79 46 30
-13.9756729963 5.86554 1.5703865452 100 55 33
-14.0375522984 10.76216 4.47751764606 130 108 109
-15.7705959971 10.5893 2.21568385624 40 55 62
-15.7641938995 9.67836 4.42652546777 67 88 97
-13.0831238233 6.89858 3.63361440169 53 29 22
-14.7017533847 11.08055 1.21683554525 177 121 48
-15.66678741 10.40999 3.4035893658 114 78 54
-14.0118358166 6.02141 1.55382167791 94 48 29
-14.7965167937 11.29236 4.41480571916 75 47 27
-14.7965167937 11.29236 4.41480571916 74 45 24
-14.4870537341 10.82604 5.26296758992 167 118 63
-14.5639920363 10.28879 0.777762502372 123 95 69
-14.2236001637 7.718655 5.50996906154 31 18 15
-14.7155221164 11.14691 1.15273437188 113 108 98
-13.9883879279 7.228761 1.72598322709 98 55 28
-13.701128813 5.71031 1.70864069464 99 59 29
-14.131881203 7.15013 1.74555639462 83 43 24
-14.63986331 7.277318 0.650136682762 92 57 34
-15.3570188952 7.668403 2.76348249709 89 58 36
-13.956291758 5.75196 1.47801464686 76 32 17
-14.4875588318 10.826 5.26335630751 167 118 63
-13.7640013536 10.69506 2.75149283955 175 117 59
-13.5167254161 9.95941 3.05251778726 148 94 42
-14.6795500937 11.17335 1.37631399637 212 146 96
-14.6143822985 8.473006 0.659961679027 100 60 35
-13.9269358074 6.42406 1.70899241238 110 60 31
-13.4925237095 5.74526 1.99291647214 94 54 21
-13.1150969054 5.4559 3.73952996099 47 25 17
-15.0757093129 10.08037 5.52411507732 96 101 99
-13.4736215853 10.36424 2.70062104193 171 111 47
-13.9005690356 10.76913 2.95591125631 80 76 112
-13.9254140959 6.38147 1.70747386237 114 65 33
-15.2431485349 8.209325 4.94635564593 66 46 36
-15.561394089 9.08125 2.18161527017 80 48 23
-14.1418473979 7.475168 1.23587184722 61 30 14
-13.1231244149 5.32345 2.94207253942 54 28 18
-15.2847261698 6.96881 1.64325364692 86 72 60
-13.3882541919 5.4003 4.26707338944 43 22 15
-13.7632490667 6.7067 4.48917184302 141 133 157
-13.0306426891 7.346401 3.25256225848 187 163 154
-14.9914671928 8.521825 0.808463724081 104 78 67
-14.7004700388 9.54204 0.759295579869 124 83 53
-13.9084609916 10.98992 2.42426601827 213 149 68
-13.397695388 9.93439 4.02582787567 73 37 23
-13.5793264995 9.99072 3.80557582696 83 49 30
-13.100975769 6.95514 3.34454270245 45 23 9
-14.4172564672 11.08593 1.40022195233 175 117 56
-14.4597208469 8.309404 0.70650391238 84 39 17
-15.4782846617 10.0168 1.69045658227 89 54 23
-13.519232857 9.93571 4.69885527115 33 30 35
-13.1165876371 7.870933 3.47653165239 230 217 220
-14.8705635856 8.0257019 5.15825660322 54 28 16
-14.5952177527 7.258974 0.553546421251 107 70 53
-13.9474980363 11.029 2.56129771257 183 122 52
-14.3906512798 9.54162 0.833802949734 37 22 16
-14.5028765611 10.54415 0.902568745354 126 84 47
-13.7825362286 6.29617 1.75869041283 106 66 27
-15.1825384481 8.280571 4.47034133577 52 28 17
-15.1825384481 8.280571 4.47034133577 52 28 17
-14.4443491299 8.380385 5.66580191485 64 38 23
-14.1782175512 8.721701 1.360236352 48 24 15
-14.7069564057 7.625764 5.65630982685 85 75 68
-13.0980787663 5.29736 2.85131744541 52 26 17
-14.0386534417 6.07592 1.5922191698 100 54 33
-14.4938563999 11.08143 1.25846172238 178 124 72
-13.7115090764 10.39589 4.36647627084 168 141 137
-13.9656238361 10.92935 2.39326647446 176 118 59
-13.121180254 6.75181 3.04813731909 67 37 22
-13.9538437954 10.91921 2.58633882759 171 106 60
-15.1286642412 9.84843 0.860244616299 46 35 33
-14.9011221338 7.77797 5.20316503935 54 31 24
-15.4327917936 11.10355 2.09817105816 79 59 35
-14.5084564089 9.49417 0.848479174284 102 57 32
-15.6209637557 10.01856 1.87775972092 81 50 26
-14.3987365349 8.126047 0.724389216364 102 57 31
-13.0743390039 5.19539 3.29747263691 63 42 28
-15.3657638108 10.53839 1.34403379406 159 108 73
-14.3951523703 9.48885 0.819028881746 25 14 13
-15.2955999267 6.78933 2.06124177775 107 75 49
-13.3712086755 9.20908 2.63292284471 241 221 218
-15.8056335921 9.84831 4.31173843028 49 67 76
-13.2457397729 9.24502 2.99026272072 144 98 66
-14.7724328427 7.406388 1.62981677947 73 44 17
-13.7863578456 9.85602 4.78177168059 90 79 91
-13.9419852429 10.49865 4.88506004101 208 182 173
-14.1997485622 8.0104513 1.34831288095 46 25 18
-14.4724876783 9.435 0.852797787896 102 58 32
-13.9383285654 6.33735 1.68753530482 110 67 30
-14.8425600555 8.966336 0.705019717176 105 64 37
-14.7741797697 6.2364 4.77033639219 66 37 29
-14.5171733183 11.02865 1.27058550969 175 123 76
-15.6314497436 9.88579 4.1536960647 94 65 45
-14.021126594 7.097364 1.14641627164 49 28 26
-13.6291851923 6.21091 2.10838270623 74 31 17
-14.6370482099 7.850107 5.02167304171 57 30 16
-13.9656342927 10.9148 2.70925401898 143 97 71
-15.6769809919 9.52221 2.03181584463 57 32 16
-13.0678651053 5.83639 3.61536578732 59 27 18
-13.9788785093 11.00617 2.66177064582 172 139 128
-14.0170518006 7.472628 1.8257048396 120 75 43
-14.1146884933 7.049412 1.72153805101 88 59 34
-14.6157005822 7.383711 1.56811863519 105 112 113
-13.4526027703 8.739382 4.15564033115 57 29 21
-14.1884057739 7.305946 1.67491776648 95 61 42
-13.8381570693 6.07374 1.51940460009 28 22 36
-13.0078583605 7.134602 3.38543722072 60 24 13
-13.886697218 9.81185 4.83820429276 91 81 91
-13.0129899486 5.59788 3.50217017156 60 29 18
-14.7910676648 10.5648 0.949735769366 158 104 64
-14.2670167271 8.796724 1.0479517881 65 33 17
-13.7403926761 5.95109 4.85513735592 37 21 25
-14.4831935871 7.445127 4.88076266605 114 122 128
-15.1793997411 6.37375 4.47461462705 72 42 25
-15.4970587283 11.15835 2.12761524274 25 20 20
-14.5666637061 11.18894 4.5099844653 101 93 105
-13.8790902727 6.17667 1.68326490938 103 54 30
-13.7771706306 7.066395 4.56900602403 139 131 155
-14.839051584 11.23944 4.46367057064 91 91 102
-15.8894492187 10.19657 2.59856494918 35 51 57
-14.837022935 11.25358 4.39521435848 76 45 19
-14.3081463026 7.526809 4.75274690498 43 21 15
-15.7237510942 10.61078 2.1706560518 53 62 65
-14.6603634867 11.5298 2.44761245385 152 152 166
-13.939650647 10.58998 4.69380138162 187 160 152
-14.8846550697 8.906011 0.753810427116 103 63 38
-14.5615900135 10.20817 0.76195425496 119 94 67
-13.0527394025 5.26067 3.24384073947 50 27 12
-13.2707338855 9.17896 3.04967727478 143 97 63
-14.4091088113 11.08111 1.35625394459 175 118 61
-14.053475639 7.246197 1.24686148947 72 35 8
-14.4158874758 11.08082 1.45624250448 172 117 70
-13.8199310228 10.24217 4.924450795 173 148 141
-14.93188402 9.95048 0.988497175477 118 72 39
-13.249465804 8.465299 3.87833471643 79 62 56
-13.9496180831 10.71014 4.42631095976 136 112 113
-14.9776799366 7.638499 1.45750486297 53 26 9
-15.7304441944 10.54974 2.23112599482 61 65 64
-13.8376900085 8.185206 1.94503110473 97 58 35
-13.4158685775 6.37091 2.11676737903 103 57 31
-13.6131234284 10.35273 2.05297759691 161 108 54
-14.5799437526 7.9172179 5.6196184005 64 39 25
-14.5019836792 8.327972 0.709433655942 100 57 29
-14.9739172123 11.4016 4.03386584006 89 64 49
-14.1618251158 8.0814373 0.941038143438 115 75 43
-13.5823857415 5.97027 1.88387805639 92 50 23
-14.5796901757 9.03772 0.736784570255 112 68 41
-14.2895907372 8.156564 1.62682285921 57 25 16
-13.2511609203 6.76014 3.93714140814 52 30 27
-15.2986327018 8.337271 4.78642354401 57 38 28
-14.6034054964 11.161 1.51160220426 184 125 64
-14.2655752201 9.49525 0.942634846647 76 39 21
-14.7045060473 11.51794 2.38337930943 155 149 157
-13.40528585 6.20359 2.38453403543 110 66 42
-13.8544871419 10.82693 2.67116959449 164 105 44
-13.2109494476 6.29621 2.60902235381 87 51 34
-14.9435315409 10.17227 0.855999223201 123 77 45
-14.5706029525 9.77762 0.816894103243 90 49 21
-14.6144689114 11.29915 2.01657791828 214 147 99
-14.4919906587 10.92592 5.27798007221 186 152 119
-14.8902804134 10.23807 0.910988293268 126 81 49
-13.2309421326 9.31581 2.8683276776 139 93 61
-15.8286186005 10.06815 3.50491458811 83 57 36
-15.023175864 9.11574 5.5053193533 64 53 53
-14.349146492 10.95143 5.11680877841 227 209 202
-14.1395655279 6.8396 1.69974155476 101 56 32
-14.8918989685 7.718922 5.13255452085 50 26 18
-14.2331768277 7.280479 1.70392660561 80 39 22
-14.9053548668 7.709063 5.48221571229 56 39 39
-15.6788110173 10.65102 3.85518380473 71 42 32
-15.6888587487 10.67935 3.98313971703 56 41 39
-13.7979492053 10.25264 4.9811097025 90 79 76
-14.1955519996 10.77891 4.9133406319 190 171 164
-14.7315162134 11.12131 1.19772505269 146 121 91
-13.0113442335 6.65623 3.48064736603 91 88 91
-14.1293724416 7.264664 1.2852380742 74 43 28
-14.6768779379 6.46803 1.70424422444 80 46 31
-14.5593576763 10.15732 0.739025522536 118 96 70
-13.1500294328 6.2884 3.53289880173 64 40 30
-14.5254775248 7.556266 1.38944072857 31 13 5
-15.1522462829 8.793904 4.59936174009 66 39 27
-13.2449272831 9.41339 2.72185060203 137 89 56
-13.7928574026 10.76727 2.75590060906 135 77 35
-14.4395783033 8.418853 0.713019957263 104 61 36
-14.8227644465 11.44917 4.05640754169 36 34 43
-13.1987092814 6.24861 2.99728694752 53 28 13
-15.4674324319 8.693605 2.08317777028 62 31 8
-14.3002741163 7.605632 0.653441400836 63 47 38
-15.67833275 10.65697 3.85073731618 71 42 32
-13.6522678039 10.37817 2.07383417306 172 109 62
-13.3335349987 9.44357 3.68602531698 126 79 35
-14.8272190192 10.52644 0.927711646766 162 110 63
-14.5189096342 7.558866 1.44178792441 36 16 9
-13.8951569512 10.9495 2.47570950773 204 140 61
-13.3158888379 9.07441 3.0376776633 236 223 225
-13.084109016 5.72021 3.06837530198 103 57 19
-14.2037261596 8.666133 1.33494449961 45 25 16
-14.5811080276 7.9189436 4.96727379163 45 20 8
-14.1364181934 10.15151 1.0848665356 111 62 34
-15.0625734399 9.11584 5.54015525309 66 79 88
-14.5847832822 7.58314 1.42670518936 38 18 9
-14.5821437235 10.14072 0.686247286957 116 118 114
-14.6868576258 7.9277124 1.5671128789 76 61 46
-13.7555648644 10.82529 2.61727342198 196 133 57
-13.4633038127 9.77229 3.00505782103 139 88 48
-13.3914789963 9.37721 3.47127367517 122 77 34
-13.962896127 5.87872 1.55589213212 95 50 28
-15.2558458197 8.0740426 4.20413115627 71 40 27
-14.464580735 9.39171 0.83256196205 106 61 34
-14.7203115819 11.4484 2.07066529843 209 145 97
-14.826425342 7.391574 0.635638385962 108 79 64
-13.6857146435 10.05024 1.7400479705 116 75 38
-14.559944593 11.41462 2.16151412774 179 126 92
-14.933481472 8.562605 5.44003140617 74 49 35
-15.3569634721 9.69271 4.94659989316 78 45 27
-13.0289626876 5.54204 3.43962480912 38 15 6
-14.853925723 7.361042 4.84617154121 24 25 60
-13.5206729215 9.99269 4.17396721421 80 43 27
-13.6750984583 10.62165 3.61739844111 125 105 109
-14.1749006595 8.514067 0.985407176071 93 54 34
-14.6796511254 5.23906 1.32063223371 116 90 88
-13.0183346072 7.116651 3.4752081826 106 75 55
-14.6574415256 7.851374 5.10246185759 52 27 15
-15.0959003614 9.15846 5.54121695036 63 87 97
-13.1237429777 5.55588 3.54086417717 49 23 12
-13.7092790019 5.873 4.91183662516 43 36 59
-14.3168090388 7.806423 5.6704487837 44 26 21
-14.332574228 8.801377 0.926473007769 82 49 27
-14.2906067782 7.512636 0.628631614981 82 36 12
-14.676936457 10.30254 1.20306043362 119 68 30
-13.8063100596 5.43524 1.5882210107 80 43 19
-13.3957143162 5.4315 4.41594278587 45 29 26
-13.2901815243 5.33014 4.21869250368 65 33 14
-15.0256569388 9.07045 5.54603313927 65 70 77
-13.105977926 5.49369 3.05825514019 103 67 43
-15.2113146759 11.42459 3.24992152242 120 86 57
-14.378956838 11.17122 1.55708223668 173 114 46
-14.1521656014 7.449359 4.66168818893 114 105 126
-13.0112066468 5.44594 3.19706579772 82 50 21
-14.171608927 8.113775 1.31242799513 47 23 14
-13.8925448019 9.53706 1.69126338703 151 136 147
-14.2228687348 8.511672 1.42200302426 50 26 17
-14.3141541396 8.749124 0.921068681497 85 53 30
-14.5305081703 5.68092 1.38870621796 86 51 40
-13.8977461121 10.8419 2.56317665953 157 91 44
-15.7591050766 10.1793 2.31860905795 97 60 29
-14.2558441776 6.60789 1.55294430947 64 24 10
-14.7800030944 8.805783 4.92584222259 59 27 15
-15.0863785954 9.77217 5.18522681725 72 40 17
-13.9491813299 6.36401 1.68021030634 115 65 35
-13.878457487 10.86164 2.56391547123 166 110 51
-14.4251495661 5.77807 1.38386409828 98 79 65
-14.4405986864 8.689166 5.69376054174 64 46 34
-13.8694602636 10.95102 2.43552271454 209 145 64
-15.2889992639 9.75238 1.07495269393 78 44 28
-13.0318344452 5.52251 3.12190545565 88 52 24
-13.8966166564 10.83892 3.46672563659 50 38 67
-15.2479856421 6.67483 2.02787890159 86 53 27
-15.3302079305 10.38793 1.14059353408 85 79 72
-14.0349325079 9.84345 1.28229812009 61 26 13
-14.1613486423 8.733506 1.23083713131 79 43 28
-13.0745728462 6.9501 2.58000720267 87 55 39
-14.2109006705 7.863271 0.949932525781 66 34 21
-13.100825393 6.11678 3.50495375755 59 32 23
-14.7894518602 11.1528 1.16872492795 114 105 93
-14.8042732198 9.9544 5.76352624023 30 25 25
-14.1764365565 7.760842 5.54025246548 35 20 17
-13.9161827764 11.00876 2.49797967332 207 146 67
-14.6951770735 7.442198 4.68225889172 71 37 19
-14.8083343551 9.95267 5.75877950407 30 26 25
-13.8093076524 10.20119 4.91380257467 166 140 132
-15.2723015139 8.338537 5.12597987652 75 73 71
-14.2176909068 9.24905 4.82687098063 44 23 19
-13.4913003835 7.055489 2.5480882776 116 67 34
-15.1788664221 10.17859 1.02338232204 99 53 22
-13.8755112772 10.72613 3.87125923453 126 110 132
-13.9636495066 10.0922 1.25403139384 81 38 18
-14.3887178134 11.09526 1.31337344435 178 120 66
-14.210701989 9.04149 1.2771064308 44 21 13
-13.238823424 6.26472 2.53847877621 85 48 30
-15.1817400617 11.3909 4.35795643875 96 109 116
-14.3652483185 8.989002 0.881487634432 90 47 19
-13.6050639726 10.36738 2.0014660674 156 106 60
-13.4572039517 9.01861 3.54731747967 95 54 26
-14.7741007048 11.43674 2.07629545437 162 125 92
-14.2353789616 10.86263 1.68718233477 172 107 20
-15.1896986791 7.547559 1.08060034549 95 61 37
-14.0150981961 10.98023 2.37801804515 169 102 54
-14.0701600709 8.0437166 1.84817201842 93 58 30
-14.2419110085 10.97557 5.20717384188 71 82 88
-14.3874179911 8.0678686 0.717514868042 105 57 30
-15.7517795478 9.73872 2.30762591048 97 68 52
-14.0429599355 7.452493 0.904463062951 121 76 43
-14.1323383559 11.03791 2.42633209528 173 106 58
-13.2783963687 6.44788 2.67338378035 60 33 13
-15.4537841419 8.255905 2.10014116269 100 78 63
-14.2125028304 6.58884 1.56223450478 67 30 8
-14.6335631719 8.127158 0.674028153198 75 39 21
-14.2199900774 7.438296 0.625962914889 131 121 114
-13.0895624846 5.22787 3.22495049083 57 32 26
-13.8553430964 10.79855 3.47658955317 41 26 46
-15.167706992 9.86195 5.50342920885 38 56 67
-15.167706992 9.86195 5.50342920885 38 56 67
-13.975764957 9.68041 1.6869090578 139 125 133
-13.648070485 5.67603 1.74710611715 107 64 34
-13.8070717969 10.9132 4.06220819404 102 94 106
-14.8413011531 10.02655 5.73737408744 27 26 27
-13.0885920792 7.523141 3.27144563205 223 208 214
-13.6997129206 10.64906 2.89723189743 167 105 43
-14.7498937691 9.72083 0.759885314493 105 81 69
-13.6461907793 10.15128 4.58620057495 181 158 152
-13.7150631705 10.74271 3.77225461109 127 107 110
-13.8160933548 9.03487 4.49493331235 40 21 18
-13.6437430725 5.68345 1.75404409964 106 63 33
-14.7048600559 7.700748 5.69497148391 108 95 85
-14.4731333801 8.272423 5.6019230673 32 17 14
-14.9959172958 8.443585 5.10260536924 54 31 20
-14.9965108377 9.02597 5.53800874567 68 61 60
-13.2306506065 8.321132 3.42991271235 220 198 193
-13.4819368677 9.03735 3.36304107045 121 73 30
-13.9783522248 9.63917 1.6890506566 156 138 154
-15.2793614798 7.9747092 4.42635442717 51 27 14
-14.3377796307 7.375432 0.500656197059 21 21 23
-14.1318726434 8.509306 1.36610733345 48 24 15
-14.5784054537 11.31542 2.06492797437 209 142 93
-14.9592990205 7.662701 5.3368201457 44 36 50
-14.9592990205 7.662701 5.3368201457 44 36 50
-14.5696399249 11.48214 2.42327192312 162 164 183
-15.2928129651 9.08057 1.75749488353 69 37 24
-13.9862539741 10.86099 3.77293791861 43 25 44
-14.6846770887 7.782694 5.68047889117 57 35 18
-13.8472004837 5.37154 1.4847198894 94 57 30
-13.9900258965 9.01884 4.65503847236 39 20 15
-15.3076034299 8.129711 4.16436180388 80 54 39
-15.6866006876 10.72368 4.06326135743 56 45 45
-14.6228352164 8.422564 0.690542494565 109 67 42
-13.8874954337 7.576891 4.52454965394 150 143 160
-14.664936055 11.19112 1.37476432773 148 112 91
-14.9826703468 9.91949 1.05369256721 121 78 47
-14.214268256 7.233827 1.69740985672 83 44 25
-14.4490979294 7.695074 1.7036144509 64 29 17
-15.6212084108 9.53995 2.00523626403 66 43 27
-14.7469819864 8.131622 4.89927134897 57 33 19
-14.1721395318 7.704707 1.01142333593 78 41 28
-13.7327829955 10.44197 4.39928269314 170 143 139
-13.9212117693 10.87859 2.73124122015 141 92 61
-14.029732767 7.358928 1.0758850992 104 62 22
-13.0305435542 5.43747 3.04204229958 71 39 9
-14.3234632769 5.46449 1.38129875316 81 50 38
-13.2011477926 6.29403 4.12636030111 49 26 12
-13.4338506592 9.022 3.1114353532 133 89 51
-15.030147541 8.615478 5.66389069945 80 102 114
-15.4489739589 8.274914 2.11095431389 102 80 65
-13.9602905995 9.07017 4.68078629955 33 17 10
-13.6744313579 6.4949 4.60098605236 131 126 140
-15.2801544068 8.294427 5.14838951895 76 82 87
-15.6729456022 10.72384 4.09722316311 56 46 45
-13.7533350081 10.74044 3.35586668038 40 18 34
-13.3023994114 6.21356 2.5745462675 93 53 34
-14.9905438061 8.522144 0.807155191667 104 78 67
-14.1698726276 8.600307 1.28775468639 62 28 17
-13.3995979218 5.595 4.33976865487 72 42 22
-14.9352355224 11.27773 4.37267705442 93 66 47
-13.0121419964 5.41279 3.10876165781 55 28 4
-14.0320163697 5.83074 1.4570820388 98 57 42
-13.9618151063 6.14163 4.76085597121 48 24 15
-13.1639758512 6.22618 4.08153889307 47 26 12
-14.213871239 7.785217 5.56232566235 42 25 20
-14.9594918776 7.620792 1.45634861418 58 29 13
-14.6998123473 7.455285 1.55273393283 60 39 22
-14.7671805603 7.449046 1.55380443818 53 28 9
-15.2024636744 9.64943 1.28358184661 104 65 39
-13.9112309329 10.89485 2.30424214637 213 151 65
-14.5541683397 7.32713 4.76139096546 99 97 95
-15.2529823055 7.9327856 4.43711264563 45 21 10
-14.671461736 11.1273 1.38709292812 181 126 80
-13.8882878195 10.83684 3.52662085657 52 38 65
-14.1528860145 10.91691 4.67322840755 167 141 136
-13.8339076799 10.71937 4.16857016271 120 99 102
-14.7743544451 7.724429 5.71440414596 142 135 129
-14.8567946281 7.470072 4.85193516713 43 42 78
-14.8816226097 7.80831 5.21390294709 68 38 20
-14.8376609643 10.36162 1.34645239876 120 71 35
-15.5464130143 9.61133 1.97007417841 80 48 26
-14.6444368036 11.48059 4.17221763907 43 38 74
-14.4721978851 11.15981 1.51266198523 182 126 74
-14.5316643663 8.230743 5.67902088102 69 42 23
-14.1647124604 10.17389 1.0637280079 111 64 34
-14.026122498 10.27683 1.16768937774 114 71 38
-14.0130319001 6.40532 1.61746469626 103 60 24
-13.906542238 10.33647 1.55761309005 136 86 37
-14.4426117694 9.56023 0.83882466498 111 75 50
-14.9339797655 6.38474 4.7412916519 71 41 27
-14.1795580984 7.707945 1.06809995606 63 31 22
-15.2502625119 6.6616 2.6169304684 90 55 37
-14.217764138 7.322922 1.42171546285 58 32 21
-14.0214300505 6.63347 4.74705859494 161 153 178
-13.4484834298 9.72229 3.09835573446 132 81 40
-13.4310852349 5.26142 1.88631190451 65 35 18
-13.8223013994 10.28145 1.69382161225 150 103 63
-14.0699239412 7.41171 1.06540893987 130 80 33
-14.6514439055 11.31969 2.00697844929 210 144 95
-14.0422846904 6.4973 1.63041184492 116 74 37
-14.1469204771 8.541476 1.34325404485 69 32 20
-13.9950191274 5.89923 1.52777930156 97 51 29
-15.7435759282 10.56774 2.18276413 51 62 65
-14.1037940435 9.20097 0.993154405277 74 38 23
-14.1741493362 8.42558 5.48883749053 51 27 20
-14.3675283152 8.772094 0.874081689857 88 55 31
-15.3759927231 8.219969 4.2859929819 55 31 17
-14.1860615313 7.798212 1.14152635023 58 24 13
-14.7852668474 7.644568 5.66948756911 151 146 139
-14.0190916201 7.239144 1.09186834334 66 28 4
-13.9230791241 8.0735386 1.86976298834 73 43 23
-15.3754646579 6.8158 2.77029641225 74 40 20
-13.345093903 6.16973 2.49484306503 97 59 26
-14.1048802998 6.25965 1.55064610929 86 42 21
-13.4800933258 9.75331 3.1479368858 142 91 55
-15.1934955735 9.8932 0.870430923134 26 25 27
-15.0808893961 9.87307 5.15618936574 77 46 23
-13.9680154136 6.375 1.64672596835 104 61 25
-13.3627063794 9.21604 2.82460361934 225 201 189
-13.3592217046 6.14734 2.44227644709 105 66 30
-13.0481344421 5.26266 3.1811981407 53 30 23
-12.9630856989 6.22066 3.09581436723 36 14 9
-14.0089948929 7.210645 0.94564260621 74 60 46
-14.3067784125 7.709316 5.53642107328 31 19 20
-13.9906128765 7.133656 1.04087089965 76 38 24
-13.7178226531 10.64697 3.68266036934 124 106 109
-15.0291129959 8.118896 1.40903093898 72 40 26
-14.2192515473 10.8258 1.34672339318 157 102 50
-14.5748248112 9.78834 5.48528908173 53 33 25
-15.7536298374 10.5052 2.2637744689 55 62 63
-14.1508716596 7.9302913 1.11444659161 59 23 11
-13.1992340144 5.95356 4.19271317576 79 72 86
-13.2213478807 5.90725 4.14785343175 84 81 90
-14.1483049616 10.52681 1.23861818482 178 124 70
-14.1559630772 8.752323 1.3500448462 49 27 17
-13.1121758929 7.9316505 3.44478210313 220 206 209
-13.1311249143 5.88228 3.72163276619 76 39 17
-13.1946544198 6.19165 4.04722315088 52 27 11
-15.0779036619 7.699082 1.08500109805 90 55 36
-15.2813385487 8.62118 4.61677309642 51 26 14
-15.2813385487 8.62118 4.61677309642 51 26 14
-15.0276999452 9.41433 5.29705979989 90 55 30
-14.4270462931 11.12705 1.00105255545 145 163 168
-13.9473677596 9.52056 1.62956075982 143 127 139
-13.4536477678 9.38718 2.90608492931 131 84 38
-14.1204636053 7.305825 1.72187043756 77 34 19
-14.554274577 8.202042 1.65164927798 101 88 80
-13.4493498693 9.78603 2.83183657533 149 96 57
-14.3252508323 11.30948 2.40823158307 176 169 182
-15.375823713 6.81275 2.83293196669 76 41 22
-14.6973122301 11.43702 4.23191225244 108 96 91
-14.3677512824 7.822404 5.63405512046 37 19 17
-13.0495955119 5.27917 3.57967959361 54 33 18
-14.9344591474 8.920749 0.813219180227 100 60 35
-14.9344591474 8.920749 0.813219180227 100 60 35
-14.5359306105 8.571843 5.79155588237 82 89 92
-14.2459093111 7.549951 1.72938275349 94 54 34
-13.1235133032 8.0675692 3.37748848286 198 183 186
-15.2856370044 8.0156525 4.18369522192 72 43 29
-15.094439951 7.605294 0.820898592869 157 167 165
-13.7121281034 5.63051 1.65927126573 88 50 23
-14.0510399299 7.409668 0.986859677508 137 90 45
-15.0497636287 9.45338 5.34670968882 80 51 34
-13.3128887977 9.64866 3.9912707677 94 51 19
-14.131411163 7.368013 1.71258314088 102 61 35
-13.6328008358 9.05597 2.108794437 195 178 189
-15.6075907964 10.06981 2.25641263529 81 47 22
-13.8558699595 10.7852 2.30758351126 201 137 58
-14.400410007 10.72323 0.989515196025 114 83 70
-13.8092823538 6.43804 2.65978982154 72 27 12
-14.7893504402 11.42595 1.96014234993 126 105 91
-14.8004895831 9.66727 0.784084562445 106 67 35
-13.5706444133 10.13502 3.68862699497 69 31 19
-14.7497342334 8.721978 0.721602589298 104 64 33
-14.9163799802 8.502844 5.6649232668 67 77 83
-13.2169905589 8.744127 3.23166530061 226 213 219
-13.0599669417 7.432858 3.14389070244 180 150 135
-14.8835880411 8.362465 0.769231657611 74 39 20
-14.9504467928 8.0630722 0.83682289168 80 48 35
-14.1953145047 8.697991 1.19702511134 99 60 42
-13.0756349169 6.05797 3.53859778432 63 34 25
-14.7359849606 6.21223 4.69574884524 70 41 29
-14.1785217693 8.788491 1.16668913205 79 40 24
-13.431227555 6.18938 2.31392392041 109 70 34
-13.7868394834 5.43049 1.58099556513 85 48 21
-14.207459938 8.51888 1.34799620443 60 27 15
-13.9972854179 7.304589 1.07271372132 114 68 24
-15.4606815939 8.821509 2.18935789406 83 51 23
-14.4674323874 11.21085 1.62743101603 180 119 69
-15.3160674442 8.106156 4.19220218572 74 46 33
-14.5374868652 8.507886 1.50544155031 59 38 31
-13.2453856899 9.46168 2.71858527461 134 88 56
-15.1675460398 7.839583 4.33747927725 70 41 27
-14.5844235319 7.764248 4.65628104279 68 34 21
-15.6269612391 10.41711 3.20811996638 118 81 56
-14.523175804 11.23848 1.20160730614 123 128 124
-13.742185265 9.94546 1.66029334052 123 99 90
-15.2352472197 8.378109 5.08892633583 77 58 46
-13.4552787184 6.15947 2.28160563549 89 48 26
-13.990486551 7.230495 1.20102883309 51 17 5
-15.7447697113 10.67093 3.64075260299 80 49 35
-14.2000669682 6.97372 1.69702123791 75 36 18
-15.7176673278 10.67499 3.69998635104 80 49 36
-13.9330660389 6.79854 4.62981543085 128 122 143
-14.4631208197 8.82024 0.705746889021 11 11 14
-15.4015791569 11.30058 2.29599636952 27 24 23
-14.1806799345 7.289819 1.41106349798 56 29 18
-15.5150228624 9.84963 1.36786704631 82 46 28
-15.0106646922 9.08849 5.39510737128 84 51 23
-13.8123099594 10.79405 3.83566420769 115 97 99
-13.953239968 9.61808 1.71694016282 162 144 160
-13.5058231308 5.59584 2.01218545739 127 80 50
-14.9928274629 8.561495 5.68274354712 78 98 108
-14.5322647421 11.09953 1.07835792965 154 154 144
-14.7779680489 8.779423 4.78038211469 58 28 15
-13.9841730603 10.98049 2.46870319484 155 96 30
-15.0015208085 8.982268 5.57103793114 68 77 83
-14.937063508 8.937578 5.53363489231 73 51 40
-14.9310302119 10.04304 0.883040555904 128 83 49
-14.9608824097 9.98038 0.874211717549 117 71 37
-14.4887052002 11.21864 1.76398504136 217 149 100
-13.131440203 6.15762 3.75078368072 38 17 8
-13.913461438 6.41462 1.69102415508 103 60 23
-15.456090987 8.252754 2.70486029796 89 59 36
-14.4161973752 7.67244 1.71630204855 73 36 22
-14.7394542715 11.37959 4.27152212427 89 90 96
-13.5051841543 10.01346 3.18851269664 131 78 28
-15.6466016414 10.80488 1.90669451684 25 21 23
-13.0838413878 5.3111 3.54782689021 50 27 18
-13.9973615838 5.38384 1.46935110205 67 36 22
-13.7839771624 5.71211 4.80136390529 52 28 22
-15.3628931033 6.76287 2.97374067001 80 47 28
-13.0974246553 5.1474 3.23998612635 51 27 23
-14.1885418028 8.57981 1.3214017189 69 32 19
-14.6218318651 11.46146 2.20044852336 168 122 92
-14.1736412983 8.73964 1.16304899437 94 53 34
-14.5358966581 11.13525 1.04203780319 139 149 148
-15.6287785193 10.06617 2.20157084468 76 44 24
-13.9650985698 5.92185 1.55412144135 103 58 34
-14.6297302398 11.13804 1.39713204271 179 124 81
-14.957119491 8.891396 5.54939741577 68 54 49
-13.6851037389 5.709 1.66093659524 113 70 41
-14.061695621 6.84224 1.7700628033 113 68 29
-15.694513625 10.63612 3.85924317804 57 40 35
-13.9717995388 6.5376 1.67555100082 105 62 24
-14.5804412515 5.73435 1.43400907663 82 49 36
-13.385231694 8.96996 2.4120279207 166 147 144
-14.5504517773 9.83838 5.51127786427 54 32 24
-14.3796217728 7.570395 1.63627775904 66 32 20
-13.9554139317 5.83972 1.53241259095 91 46 27
-15.4489548922 8.356071 2.60807222922 100 70 49
-15.3486224576 6.71409 2.85503243284 90 55 34
-14.1334583071 8.56611 1.29830138555 58 32 20
-14.7840158771 8.62188 0.637199855924 95 57 36
-13.7024166547 10.44405 2.45543314208 162 104 42
-15.2359990773 7.416312 1.98970333527 58 30 9
-15.2275715965 7.366046 2.03647070816 63 35 11
-13.1039444205 7.871104 3.4084736421 212 198 201
-15.2274488136 6.76209 4.02651715079 75 40 13
-15.392652045 11.25821 2.2512216102 32 26 22
-15.6492143987 10.41611 3.36507911166 108 71 50
-14.2488269511 7.365923 1.43635255748 52 27 18
-13.5670973837 10.13844 3.19724518957 123 75 34
-13.147838397 7.071034 3.74453274386 173 163 176
-15.0760334728 5.59919 1.86733403568 77 44 25
-14.069024475 10.98807 4.22866237547 109 93 95
-13.0509421673 5.48451 3.55005575456 87 57 41
-15.4327637285 8.0795731 4.14413009265 56 31 18
-13.814815093 6.22961 4.66153519208 47 24 16
-13.974977349 6.45943 1.65675418135 108 65 28
-15.7147887965 10.70927 4.0273360542 45 44 49
-14.2372887499 8.831766 1.47786809085 59 25 15
-14.9608456543 8.764487 5.57208001058 70 70 70
-15.0256680045 11.50682 1.98595081568 50 49 51
-13.9564777106 6.90246 4.77794961729 38 36 57
-13.4201083486 5.82241 2.35172407449 104 62 33
-13.9771150404 10.32735 1.17063522186 155 171 177
-15.2974290433 6.9368 2.35407626467 77 42 18
-14.7774116017 10.07394 0.845606691575 121 72 40
-13.7689207537 9.98338 4.83717620648 103 92 101
-14.67736471 11.20267 1.59970942089 176 124 77
-15.0143446283 11.50914 1.97468250825 59 61 66
-14.2105273 7.366912 1.39784070052 62 36 24
-14.1918697929 7.125833 1.34707328647 38 17 11
-15.1167213134 6.55106 1.98274653081 82 44 28
-14.0433374542 7.372432 0.932979822579 123 73 45
-13.6403853502 7.752638 4.26216882791 168 160 180
-14.3758948841 11.00289 5.14657543999 145 141 140
-13.5960580263 10.5149 3.68787707763 107 90 90
-14.9909961056 9.10637 5.49175595948 56 32 20
-14.9896844291 8.761542 5.62617378719 64 82 92
-13.8566261044 10.80017 3.47731065686 41 26 47
-14.1449721408 10.99907 4.32404926641 109 92 94
-14.0553859502 11.01322 2.41335192372 172 105 57
-14.6472090998 9.21009 0.772459442182 132 94 62
-15.2287231307 7.378852 1.93150906579 59 32 11
-15.0170088214 8.376934 4.76142212574 44 20 10
-15.6857680614 10.72382 4.06522205467 56 45 45
-14.1884901034 8.793781 1.11049478343 86 44 25
-13.87402536 10.39547 1.55412983762 142 90 33
-14.1483606122 7.00888 4.7124990252 130 124 147
-13.999774798 10.97344 2.51038062133 153 97 40
-14.1976649032 7.191156 1.48809881287 39 18 10
-14.9791323829 8.660473 5.6329491781 76 95 105
-13.1061371635 7.9121688 3.24853379091 210 195 201
-14.0575892261 6.50264 1.62617037257 116 74 37
-15.2957770619 8.386086 5.12920768516 74 80 84
-15.6864283808 10.72176 4.06634298206 56 46 45
-14.2716574537 7.593348 4.72780844463 57 34 24
-13.6358002026 9.11739 4.44004467688 42 21 17
-13.2147290392 8.419337 3.36170175616 199 184 191
-14.1038210831 6.25613 1.48501377763 65 23 10
-14.1964271378 7.765291 1.08400736031 62 28 15
-14.1146673261 6.209 1.56301973518 86 42 24
-12.923144208 7.262623 3.30530522648 117 106 99
-14.9762064204 9.02823 5.4705917134 73 48 39
-14.4012247794 11.10304 5.01384858087 62 67 74
-14.1101182311 7.487791 0.904836478151 129 94 58
-14.9912673844 11.01446 1.31092663075 137 99 71
-13.1610593596 8.214686 3.24238433441 245 232 237
-14.1760608891 7.478465 1.73929309341 109 70 39
-14.0899807045 11.00852 2.37877957828 171 102 54
-14.185087276 10.15668 1.03436447629 93 51 22
-14.2919403495 10.84996 1.11549269012 177 160 146
-14.3527504094 7.717277 4.92815437706 44 20 9
-13.2228774434 5.71974 3.9996291572 57 27 9
-14.9344019851 8.918994 0.816702229533 98 57 32
-13.0927127382 6.00853 3.48912823994 54 22 16
-13.4571800274 6.07328 2.22785775531 82 40 16
-13.6161475726 5.92522 4.71327853219 56 29 13
-13.4796736802 10.06298 3.37269417266 108 63 26
-13.7020680744 10.52115 4.00247203259 123 101 104
-13.7827464788 10.16537 1.62331604969 131 87 46
-13.1158437211 6.11441 3.60190964094 57 32 22
-14.8737404926 8.93539 0.739902842634 102 61 36
-14.8737404926 8.93539 0.739902842634 99 59 34
-14.8606834027 11.43477 4.22327283246 91 68 58
-13.0712750322 6.70806 3.50206135606 85 64 51
-14.2397656284 5.58826 1.34424700916 99 87 77
-13.5489743728 9.9818 4.75510271315 33 30 35
-14.9194277485 8.978647 5.52891534936 73 49 37
-13.2460820761 5.73471 2.64861701648 89 49 23
-14.0327713824 7.756979 5.39909801416 48 26 14
-14.374374227 8.943399 1.62479223061 75 51 49
-13.7002803904 9.80725 1.79308615502 159 148 156
-15.3466688076 6.75994 2.81897125078 81 47 27
-14.0515914648 7.374203 0.920311933675 141 90 56
-13.7202237758 10.50241 4.10561335799 131 109 110
-14.580449573 10.15039 0.603672073036 133 83 48
-13.5166478159 10.11925 3.55787321276 70 33 19
-15.6474602835 9.6378 2.21417520052 107 73 51
-14.8620578645 8.425464 0.737421652938 75 40 20
-13.0379394937 7.225502 3.04882085393 107 65 27
-15.3375284947 9.68321 1.06304443389 61 60 55
-14.9223281324 8.551558 5.62973037142 68 71 75
-14.4090412295 7.861531 0.643973312025 128 132 134
-13.8994953964 10.70591 1.53349749295 153 95 45
-13.6066241216 6.35525 4.22894280962 63 33 16
-15.2898114826 6.88944 2.75838703916 84 50 29
-14.3480178818 11.08739 1.46012867312 171 112 53
-15.2428178782 8.369505 4.53146154768 46 22 12
-15.7403742895 9.63891 4.41733892425 69 86 93
-14.1153775372 9.41675 4.78596659876 86 71 79
-13.9913533984 10.1824 1.28461061026 123 78 44
-14.4282710498 11.07392 4.98436074031 118 111 112
-13.3792214937 8.98406 3.92110826694 71 38 20
-13.2157059647 8.746203 3.23498575881 225 212 218
-14.112990918 11.14056 2.31813283906 165 108 51
-13.4869000639 6.30668 2.19011693617 128 90 52
-14.1640804469 7.440023 1.70978888008 86 52 31
-14.8130493867 10.57333 0.953209715617 158 104 64
-14.4017862335 11.13572 5.09085259673 81 90 96
-14.4022546078 8.0793678 0.789631129757 107 71 49
-14.139542995 6.54627 1.59482073512 105 63 32
-14.6534089948 7.470565 0.716189150716 78 43 26
-14.0482268615 6.35987 1.57074185076 104 61 25
-14.9576475101 7.443172 1.72908115058 53 27 11
-14.8880264066 7.452517 1.72529782677 67 40 21
-13.0818981463 5.69395 3.65507947464 50 26 16
-14.6243716101 11.07787 1.08018145873 162 155 140
-14.0756772757 10.2372 1.1237489908 105 62 30
-14.9773292309 8.939288 5.55638592881 67 63 62
-13.4297793832 6.35845 2.11211357578 113 68 39
-14.2571726119 7.500126 1.32760349612 56 30 20
-13.6314206044 6.31919 4.22609351729 66 34 18
-14.1750270594 11.02611 2.39951619154 173 104 56
-13.4717682479 9.48071 3.13426803517 95 53 23
-15.7609918322 10.06269 4.48348534544 52 71 83
-13.082617159 5.31015 3.50155251233 52 27 19
-14.0996376525 6.44977 1.58562368424 104 63 26
-15.2924434766 11.13958 2.31592131054 215 165 100
-14.8355051059 10.96713 1.04230027782 107 89 78
-14.1640896265 8.264173 1.22872064706 67 36 22
-13.924064467 10.4647 1.53008118326 165 110 54
-13.581736113 10.67366 3.55731780795 125 106 110
-13.581736113 10.67366 3.55731780795 125 106 110
-14.1559248178 7.582484 1.22089086432 74 36 20
-14.399495751 11.06937 5.0872131997 68 72 77
-13.6746842347 10.41893 4.17632895023 148 121 120
-14.9547777019 8.80856 5.5333128137 71 55 48
-13.6902526934 10.46929 2.49414180452 160 104 48
-13.6746302045 10.41896 4.17624480313 145 119 118
-13.6746302045 10.41896 4.17624480313 148 121 120
-14.1754261571 11.17124 2.24381785397 168 111 55
-14.992146331 8.892399 5.58240499192 66 78 84
-15.6711529729 10.65543 4.37871660261 51 74 85
-13.0788827876 5.18421 3.440965384 72 47 38
-14.1492586232 7.289796 1.3705119001 63 34 19
-13.6690976228 5.37081 1.42497853827 22 15 35
-14.7621397324 8.823764 0.762836667371 103 62 35
-14.1848010288 10.03782 1.00151088954 86 47 24
-13.7046629131 10.46373 4.14828573843 139 114 115
-13.7046629131 10.46373 4.14828573843 139 114 115
-14.2179697063 10.03243 5.57763883285 46 25 17
-13.7915015764 5.39743 1.53961690772 108 70 42
-13.4323874137 9.29067 2.31793276409 169 156 162
-15.3920800819 11.2417 2.17565041623 30 22 19
-13.8009129662 5.33515 1.51111325634 84 49 24
-14.2091702575 11.21054 2.29559383386 165 106 49
-14.7226749197 8.797742 0.71901213703 101 59 33
-15.4143560153 11.28557 2.21280471194 25 22 21
-14.1927008129 8.437333 5.42154651241 47 23 16
-14.1063257603 9.34735 4.77525998589 66 48 49
-14.2797099751 10.80284 1.00379317562 162 177 183
-14.690829215 8.75971 0.741004942501 97 55 29
-13.7358408384 6.07904 1.832643797 117 69 41
-13.0650890855 5.15897 3.09865146448 77 54 37
-13.1325027494 6.05721 3.60285927395 66 38 21
-14.2029688333 11.20824 2.225895226 173 114 56
-14.0371415326 9.43231 1.73246986189 160 142 159
-15.701860337 10.36922 4.71932102697 50 69 78
-15.4275230896 11.3589 2.37227045922 20 18 21
-14.7308599634 7.123684 1.33564373974 71 42 27
-14.9431769431 8.484258 0.740714903536 107 84 71
-13.9480019147 10.87657 3.46439213538 54 45 76
-13.7057238293 5.55194 1.44257959221 27 22 45
-12.8518654251 7.305974 2.62793438482 66 30 16
-13.1432779299 5.82717 4.04467860205 47 23 14
-14.1987975526 10.92241 4.77779991594 193 166 157
-13.5435757994 5.04656 4.78887317251 79 63 66
-14.3599584788 7.253439 0.548449546976 78 44 29
-14.0514657311 7.361685 1.06383195559 87 45 18
-15.1655562001 7.673024 1.27055845456 65 37 17
-14.8021389872 11.39068 4.23139157074 70 73 81
-15.1861481146 11.34753 3.75344161844 109 80 63
-13.6321185856 10.11318 4.86821058241 56 54 57
-13.6321185856 10.11318 4.86821058241 69 59 58
-13.930082915 10.87074 3.58558666104 52 39 64
-14.1899685469 7.855545 5.11776449855 47 29 22
